ncols         597
nrows         32
xllcorner     -114.133749879
yllcorner     38.9720834302
cellsize      0.00083333333333333
NODATA_value  -9999
1666 1665 1660 1658 1655 1652 1650 1647 1646 1644 1641 1640 1638 1637 1636 1633 1631 1632 1629 1627 1626 1626 1624 1621 1619 1618 1616 1614 1612 1609 1609 1608 1608 1606 1606 1602 1600 1598 1596 1594 1593 1591 1590 1589 1588 1587 1587 1585 1585 1584 1582 1584 1583 1581 1580 1581 1579 1579 1579 1577 1578 1577 1576 1576 1575 1575 1575 1575 1574 1573 1572 1573 1572 1571 1571 1571 1570 1571 1569 1568 1570 1569 1569 1568 1569 1568 1569 1570 1572 1570 1569 1570 1570 1570 1567 1568 1567 1565 1567 1567 1567 1569 1569 1569 1569 1569 1568 1566 1568 1568 1568 1568 1568 1565 1565 1566 1565 1566 1567 1564 1565 1565 1565 1566 1564 1564 1563 1563 1563 1563 1562 1563 1562 1561 1561 1561 1562 1560 1561 1561 1561 1561 1562 1563 1562 1562 1562 1561 1562 1563 1562 1562 1561 1560 1563 1560 1560 1560 1559 1560 1559 1560 1562 1562 1558 1558 1560 1561 1559 1558 1559 1559 1559 1559 1560 1558 1558 1561 1560 1560 1558 1558 1558 1558 1558 1557 1556 1556 1555 1555 1556 1556 1556 1556 1556 1555 1555 1556 1556 1556 1554 1553 1554 1555 1554 1554 1553 1553 1554 1555 1555 1555 1553 1551 1550 1552 1551 1552 1551 1549 1550 1551 1551 1550 1551 1549 1550 1550 1549 1548 1546 1548 1548 1547 1546 1547 1547 1546 1546 1546 1545 1547 1545 1545 1544 1544 1546 1544 1544 1542 1542 1542 1542 1542 1542 1542 1542 1543 1543 1541 1542 1542 1542 1542 1540 1540 1539 1539 1539 1539 1539 1540 1540 1541 1540 1540 1538 1537 1537 1539 1538 1537 1537 1537 1537 1538 1539 1537 1538 1537 1537 1537 1537 1537 1536 1535 1536 1535 1535 1537 1537 1537 1536 1537 1536 1536 1537 1537 1536 1536 1538 1538 1538 1538 1538 1539 1538 1539 1539 1537 1539 1540 1539 1537 1538 1538 1538 1539 1541 1541 1540 1540 1541 1541 1540 1540 1540 1539 1540 1540 1540 1541 1541 1540 1541 1543 1541 1542 1542 1543 1542 1542 1541 1542 1543 1544 1542 1542 1542 1544 1543 1543 1543 1544 1545 1544 1542 1543 1543 1545 1543 1542 1542 1543 1543 1543 1543 1543 1543 1542 1544 1544 1543 1543 1543 1541 1542 1543 1541 1543 1543 1543 1543 1542 1541 1543 1543 1542 1542 1543 1544 1544 1543 1543 1544 1543 1544 1545 1544 1544 1544 1545 1546 1545 1546 1547 1547 1547 1546 1546 1547 1548 1549 1549 1549 1548 1548 1548 1549 1550 1551 1550 1550 1550 1551 1551 1552 1551 1552 1551 1551 1552 1553 1553 1553 1552 1553 1553 1552 1553 1552 1555 1553 1553 1555 1555 1555 1555 1556 1555 1556 1556 1556 1557 1556 1556 1556 1556 1556 1555 1557 1559 1559 1559 1559 1560 1562 1562 1564 1564 1566 1566 1567 1567 1565 1566 1570 1572 1573 1572 1572 1574 1572 1573 1574 1573 1575 1578 1578 1579 1580 1579 1582 1585 1587 1587 1589 1591 1592 1594 1596 1596 1598 1598 1601 1602 1604 1604 1606 1608 1610 1611 1612 1615 1617 1618 1622 1625 1627 1630 1631 1635 1638 1641 1642 1647 1652 1655 1657 1661 1666 1671 1676 1680 1685 1689 1695 1699 1704 1711 1716 1723 1732 1737 1745 1754 1765 1784 1809 1829 1845 1859 1864 1876 1899 1929 1963 1994 2029 2086 2124 2153 2134 2115 2139 2150 2138 2127 2110 2087 2071 2063 2048 2033 2000 1970 1948 1932 1923 1919 1918 1916 1914 1915 1922 1927 1932
1668 1663 1660 1657 1654 1653 1651 1649 1647 1645 1643 1642 1641 1638 1636 1633 1633 1635 1632 1630 1629 1627 1624 1624 1622 1619 1616 1615 1614 1610 1609 1608 1607 1605 1605 1603 1601 1600 1598 1597 1594 1592 1591 1591 1589 1588 1585 1585 1584 1583 1583 1585 1585 1582 1582 1582 1581 1580 1580 1581 1579 1578 1577 1576 1576 1576 1575 1575 1574 1574 1573 1572 1573 1572 1571 1570 1571 1572 1570 1569 1570 1570 1570 1571 1568 1568 1570 1571 1571 1569 1569 1569 1569 1568 1570 1570 1569 1568 1569 1569 1569 1569 1568 1568 1567 1568 1567 1566 1567 1569 1569 1568 1567 1567 1566 1567 1567 1567 1567 1567 1566 1567 1567 1566 1566 1565 1564 1563 1563 1563 1563 1563 1562 1562 1561 1562 1562 1562 1563 1563 1562 1561 1561 1561 1562 1563 1562 1562 1562 1561 1562 1561 1561 1560 1561 1561 1559 1558 1559 1561 1560 1560 1559 1562 1560 1560 1560 1560 1560 1561 1560 1561 1559 1559 1560 1559 1559 1560 1560 1561 1559 1558 1557 1559 1558 1557 1556 1557 1557 1557 1558 1559 1558 1556 1556 1556 1555 1556 1556 1556 1555 1554 1555 1557 1555 1554 1554 1554 1553 1552 1553 1554 1553 1553 1551 1552 1553 1551 1552 1553 1551 1553 1552 1549 1550 1551 1550 1550 1549 1549 1549 1550 1548 1548 1546 1547 1547 1546 1547 1545 1546 1546 1545 1545 1545 1545 1545 1543 1545 1543 1542 1543 1542 1542 1542 1541 1541 1542 1541 1540 1542 1542 1542 1541 1541 1541 1540 1540 1539 1539 1539 1540 1540 1539 1539 1540 1538 1539 1539 1538 1540 1538 1537 1537 1537 1537 1537 1537 1537 1537 1538 1537 1537 1536 1537 1536 1537 1537 1536 1536 1536 1537 1538 1538 1536 1537 1538 1537 1536 1536 1537 1537 1538 1538 1536 1538 1540 1540 1541 1541 1540 1539 1539 1539 1539 1540 1540 1540 1539 1540 1542 1541 1541 1542 1543 1543 1540 1539 1540 1541 1543 1544 1543 1542 1543 1542 1542 1545 1544 1543 1544 1543 1544 1544 1545 1545 1545 1545 1545 1544 1544 1545 1545 1545 1546 1545 1544 1546 1546 1544 1544 1545 1544 1545 1546 1544 1544 1545 1546 1545 1545 1543 1544 1546 1544 1542 1543 1541 1542 1543 1542 1542 1542 1541 1541 1543 1543 1543 1544 1545 1544 1543 1543 1544 1544 1543 1545 1545 1543 1544 1545 1545 1545 1545 1546 1547 1547 1546 1546 1546 1547 1548 1546 1546 1547 1548 1548 1549 1549 1549 1550 1551 1553 1552 1550 1551 1552 1551 1552 1551 1552 1553 1552 1552 1553 1552 1552 1551 1551 1551 1552 1554 1552 1552 1552 1553 1554 1555 1555 1556 1556 1555 1553 1554 1554 1555 1556 1555 1556 1556 1555 1555 1556 1556 1559 1560 1562 1562 1562 1563 1565 1565 1564 1565 1566 1567 1567 1568 1569 1569 1571 1572 1571 1571 1572 1571 1575 1577 1577 1577 1579 1580 1583 1584 1586 1587 1589 1590 1591 1593 1595 1595 1597 1600 1599 1602 1602 1603 1604 1607 1608 1607 1611 1615 1617 1619 1622 1625 1626 1627 1631 1634 1638 1640 1643 1649 1652 1654 1657 1661 1666 1670 1674 1679 1684 1689 1692 1699 1707 1712 1718 1724 1733 1740 1748 1757 1765 1777 1793 1803 1814 1826 1836 1854 1877 1903 1927 1950 1982 2024 2055 2080 2093 2068 2070 2101 2111 2107 2105 2093 2077 2061 2057 2054 2008 1974 1946 1929 1917 1913 1911 1911 1910 1912 1917 1922 1932
1667 1665 1662 1658 1656 1655 1651 1650 1647 1647 1646 1646 1644 1640 1639 1634 1633 1636 1633 1630 1630 1628 1624 1623 1622 1621 1618 1616 1615 1613 1611 1609 1608 1607 1606 1605 1604 1602 1599 1596 1595 1594 1593 1592 1590 1587 1588 1587 1584 1585 1584 1583 1583 1581 1581 1581 1583 1581 1580 1580 1579 1579 1578 1577 1576 1576 1575 1576 1576 1574 1573 1572 1573 1573 1571 1571 1571 1570 1569 1570 1571 1572 1572 1571 1570 1570 1570 1570 1571 1571 1570 1570 1569 1569 1571 1571 1569 1569 1570 1569 1570 1570 1569 1570 1571 1571 1567 1568 1568 1570 1570 1569 1568 1567 1567 1568 1567 1567 1568 1567 1567 1568 1567 1567 1567 1565 1565 1565 1563 1563 1562 1562 1562 1562 1562 1563 1562 1563 1562 1563 1562 1561 1561 1561 1560 1562 1562 1562 1562 1561 1562 1561 1562 1562 1562 1561 1559 1560 1560 1560 1561 1559 1560 1561 1561 1560 1562 1561 1560 1560 1560 1562 1561 1560 1560 1557 1558 1560 1561 1560 1558 1559 1557 1560 1557 1557 1557 1557 1557 1557 1556 1557 1557 1557 1558 1557 1555 1555 1556 1557 1557 1556 1556 1555 1554 1554 1553 1554 1554 1553 1552 1552 1552 1552 1552 1551 1552 1553 1551 1551 1552 1552 1550 1550 1551 1551 1551 1549 1550 1549 1548 1549 1548 1547 1547 1547 1546 1546 1547 1548 1546 1546 1546 1546 1545 1546 1545 1546 1546 1543 1542 1543 1542 1544 1542 1543 1543 1542 1541 1542 1541 1541 1542 1541 1540 1541 1540 1540 1540 1539 1540 1540 1540 1539 1540 1541 1539 1540 1539 1539 1540 1538 1538 1539 1539 1537 1538 1539 1538 1536 1537 1538 1537 1537 1538 1537 1537 1537 1537 1537 1537 1538 1537 1536 1537 1538 1539 1538 1539 1538 1538 1539 1539 1538 1539 1537 1539 1540 1540 1541 1540 1540 1541 1540 1541 1542 1540 1541 1542 1541 1542 1543 1542 1542 1543 1543 1542 1542 1542 1543 1543 1543 1542 1543 1542 1542 1545 1543 1544 1546 1545 1544 1544 1545 1545 1545 1545 1546 1546 1546 1546 1545 1546 1546 1546 1546 1546 1547 1547 1546 1545 1547 1547 1546 1545 1546 1545 1545 1546 1546 1546 1545 1545 1545 1545 1544 1544 1542 1542 1543 1544 1544 1542 1541 1541 1544 1543 1542 1543 1544 1544 1544 1544 1543 1542 1543 1543 1544 1545 1545 1545 1544 1545 1545 1546 1545 1545 1546 1546 1547 1547 1548 1547 1547 1548 1548 1548 1550 1551 1551 1552 1552 1550 1550 1551 1552 1552 1551 1549 1551 1552 1552 1552 1551 1553 1552 1551 1552 1553 1552 1552 1553 1553 1550 1550 1553 1553 1554 1553 1554 1554 1554 1555 1554 1554 1555 1555 1555 1556 1555 1555 1554 1555 1557 1556 1558 1561 1562 1562 1562 1563 1564 1565 1564 1567 1567 1564 1563 1566 1569 1568 1568 1570 1572 1574 1575 1575 1574 1576 1577 1579 1580 1582 1582 1584 1585 1589 1590 1592 1594 1595 1595 1598 1597 1597 1600 1602 1602 1604 1606 1608 1610 1613 1613 1616 1618 1619 1623 1625 1628 1631 1635 1636 1639 1644 1649 1651 1655 1660 1663 1666 1671 1674 1678 1680 1686 1693 1700 1705 1712 1717 1727 1732 1739 1748 1755 1765 1773 1782 1790 1801 1815 1826 1836 1857 1875 1895 1919 1950 1983 2057 2065 2042 2018 2017 2029 2063 2090 2087 2074 2069 2070 2064 2046 1978 1948 1929 1916 1907 1907 1906 1907 1909 1912 1917 1924 1929
1667 1667 1663 1662 1658 1658 1655 1652 1651 1652 1647 1645 1642 1643 1641 1638 1636 1635 1632 1631 1631 1629 1626 1623 1622 1620 1620 1619 1616 1616 1613 1611 1610 1609 1605 1603 1603 1602 1601 1596 1595 1596 1595 1592 1591 1589 1587 1586 1586 1584 1584 1584 1584 1582 1582 1584 1582 1581 1581 1581 1581 1580 1579 1578 1577 1577 1577 1576 1576 1575 1575 1574 1573 1573 1573 1571 1571 1571 1570 1570 1572 1571 1571 1573 1571 1572 1572 1571 1571 1570 1570 1571 1570 1571 1570 1570 1569 1570 1570 1570 1569 1572 1572 1572 1571 1571 1569 1569 1569 1569 1569 1568 1568 1568 1568 1570 1568 1569 1568 1567 1567 1567 1566 1566 1568 1567 1566 1566 1565 1563 1562 1563 1563 1563 1562 1562 1562 1561 1562 1561 1562 1561 1563 1564 1563 1562 1562 1563 1562 1561 1563 1562 1561 1561 1562 1564 1561 1562 1563 1561 1560 1559 1560 1562 1562 1561 1560 1561 1562 1561 1562 1560 1561 1561 1561 1558 1559 1561 1561 1560 1559 1559 1558 1559 1557 1557 1558 1558 1559 1558 1558 1558 1559 1557 1558 1557 1556 1555 1556 1556 1557 1558 1556 1555 1555 1555 1555 1555 1554 1555 1554 1552 1553 1553 1554 1552 1551 1553 1552 1551 1552 1552 1551 1550 1552 1550 1550 1550 1552 1554 1552 1550 1548 1548 1549 1549 1549 1546 1547 1545 1545 1545 1545 1545 1545 1546 1546 1546 1546 1543 1542 1544 1543 1544 1543 1541 1541 1540 1541 1541 1541 1542 1541 1540 1541 1541 1540 1540 1540 1540 1540 1540 1540 1538 1538 1539 1540 1541 1539 1539 1539 1538 1538 1538 1538 1539 1538 1538 1537 1537 1537 1538 1539 1539 1538 1538 1538 1537 1539 1539 1538 1537 1537 1536 1538 1539 1538 1538 1539 1539 1538 1539 1539 1540 1539 1538 1540 1541 1539 1540 1542 1543 1543 1541 1541 1542 1543 1542 1543 1543 1543 1543 1542 1542 1544 1546 1545 1544 1544 1545 1544 1544 1545 1544 1545 1546 1546 1545 1546 1546 1547 1547 1547 1547 1547 1547 1548 1548 1550 1548 1547 1547 1548 1547 1547 1548 1548 1547 1546 1547 1547 1548 1549 1549 1547 1547 1547 1546 1547 1546 1547 1547 1545 1545 1546 1546 1546 1546 1545 1544 1543 1543 1544 1543 1542 1543 1543 1541 1542 1542 1542 1544 1543 1545 1544 1544 1544 1544 1545 1545 1545 1544 1544 1545 1546 1546 1547 1546 1546 1546 1546 1548 1548 1548 1549 1549 1547 1549 1549 1549 1550 1550 1551 1552 1552 1552 1552 1553 1552 1552 1551 1551 1552 1550 1551 1551 1551 1551 1554 1553 1552 1552 1551 1550 1551 1554 1553 1553 1555 1556 1555 1555 1554 1556 1559 1557 1556 1555 1554 1554 1554 1554 1554 1554 1555 1558 1559 1560 1562 1562 1560 1561 1563 1563 1565 1565 1565 1563 1564 1566 1568 1568 1568 1571 1572 1573 1573 1575 1576 1578 1579 1581 1582 1582 1583 1585 1586 1587 1590 1592 1595 1595 1595 1594 1596 1599 1601 1601 1602 1605 1608 1610 1613 1614 1616 1620 1621 1623 1624 1628 1633 1637 1639 1642 1645 1649 1652 1658 1661 1661 1665 1671 1675 1678 1681 1689 1695 1699 1704 1709 1715 1723 1732 1737 1743 1752 1760 1767 1772 1784 1805 1828 1844 1853 1871 1882 1904 1936 1972 2009 2041 2046 2015 1990 1980 1990 2008 2035 2060 2084 2077 2047 2030 1992 1956 1930 1915 1906 1901 1901 1902 1902 1905 1913 1919 1921 1926
1672 1670 1668 1664 1661 1659 1656 1656 1655 1655 1650 1648 1647 1644 1642 1640 1638 1636 1633 1630 1628 1627 1626 1626 1626 1625 1622 1620 1619 1617 1615 1612 1612 1610 1607 1602 1601 1601 1601 1598 1597 1595 1592 1593 1592 1592 1590 1588 1587 1586 1585 1585 1584 1583 1584 1585 1582 1581 1581 1582 1581 1580 1581 1579 1577 1576 1576 1577 1577 1576 1573 1573 1573 1572 1573 1572 1572 1572 1572 1572 1572 1572 1572 1571 1570 1571 1571 1571 1572 1570 1572 1572 1572 1573 1572 1570 1569 1570 1571 1571 1572 1572 1572 1571 1570 1570 1569 1571 1571 1570 1569 1569 1570 1569 1568 1569 1569 1568 1569 1569 1568 1568 1568 1566 1566 1565 1565 1565 1565 1566 1564 1563 1562 1563 1563 1564 1562 1562 1564 1564 1564 1563 1563 1563 1563 1565 1563 1562 1563 1565 1565 1562 1561 1562 1562 1561 1561 1563 1563 1561 1561 1560 1560 1561 1563 1562 1561 1560 1561 1562 1563 1560 1560 1560 1560 1561 1560 1561 1559 1558 1559 1558 1557 1557 1558 1559 1558 1558 1558 1558 1557 1559 1557 1557 1557 1558 1558 1556 1557 1556 1556 1557 1557 1556 1556 1556 1556 1553 1553 1554 1552 1554 1554 1554 1555 1554 1552 1552 1553 1551 1551 1553 1552 1552 1553 1553 1554 1556 1556 1557 1556 1554 1553 1551 1551 1550 1553 1551 1546 1547 1546 1547 1546 1546 1546 1546 1545 1545 1544 1543 1543 1544 1543 1542 1543 1541 1541 1540 1542 1542 1542 1543 1542 1542 1542 1542 1541 1542 1540 1540 1540 1540 1540 1538 1538 1539 1538 1539 1539 1539 1539 1537 1538 1539 1539 1538 1538 1539 1538 1537 1539 1539 1538 1538 1539 1540 1538 1539 1538 1540 1538 1537 1536 1536 1538 1539 1538 1537 1539 1539 1538 1539 1540 1541 1541 1541 1542 1541 1541 1543 1543 1544 1545 1543 1543 1544 1544 1544 1544 1544 1544 1544 1545 1545 1546 1547 1546 1545 1546 1546 1546 1545 1547 1546 1547 1547 1547 1548 1548 1548 1549 1548 1548 1548 1549 1550 1550 1549 1551 1550 1549 1550 1548 1548 1549 1548 1549 1550 1549 1548 1550 1551 1550 1549 1549 1547 1548 1548 1548 1547 1548 1547 1547 1548 1548 1546 1546 1547 1546 1546 1545 1544 1544 1544 1543 1541 1541 1542 1543 1543 1545 1545 1544 1543 1543 1544 1545 1545 1545 1545 1546 1545 1545 1546 1546 1545 1547 1546 1546 1546 1548 1548 1548 1548 1548 1548 1549 1547 1547 1551 1552 1551 1550 1551 1550 1550 1551 1552 1554 1552 1551 1551 1551 1552 1553 1552 1552 1553 1553 1555 1556 1553 1553 1553 1552 1552 1550 1552 1553 1554 1555 1554 1552 1555 1556 1552 1554 1554 1553 1554 1552 1551 1552 1554 1554 1555 1557 1558 1558 1561 1561 1561 1561 1562 1563 1564 1566 1565 1565 1565 1568 1566 1567 1569 1569 1571 1574 1576 1576 1577 1578 1579 1581 1582 1582 1586 1587 1587 1589 1590 1592 1593 1593 1594 1595 1597 1598 1601 1603 1604 1605 1607 1612 1613 1616 1618 1620 1624 1628 1629 1634 1637 1639 1644 1647 1651 1653 1657 1659 1663 1667 1670 1675 1679 1684 1687 1692 1699 1701 1708 1714 1720 1725 1733 1741 1747 1752 1758 1761 1770 1797 1822 1835 1851 1878 1906 1945 1979 2008 2021 2016 2009 1998 1977 1958 1965 1981 1997 2022 2046 2005 1990 1952 1937 1929 1912 1903 1897 1897 1896 1897 1901 1909 1913 1917 1928 1932
1674 1671 1669 1665 1665 1663 1660 1660 1655 1654 1652 1649 1647 1646 1642 1640 1639 1637 1634 1631 1628 1629 1629 1629 1628 1625 1623 1621 1619 1618 1616 1613 1611 1610 1607 1604 1604 1602 1600 1599 1597 1594 1594 1595 1594 1592 1589 1589 1588 1587 1587 1586 1586 1586 1586 1584 1583 1584 1581 1582 1582 1581 1581 1580 1579 1577 1576 1577 1576 1575 1574 1574 1574 1572 1571 1573 1573 1574 1572 1571 1571 1571 1572 1571 1572 1572 1571 1571 1573 1571 1572 1572 1571 1571 1573 1571 1571 1570 1572 1571 1572 1573 1572 1572 1571 1569 1568 1572 1572 1571 1571 1571 1571 1571 1570 1569 1568 1569 1569 1569 1568 1569 1570 1568 1567 1566 1567 1566 1566 1566 1565 1564 1563 1562 1563 1564 1565 1565 1563 1563 1564 1564 1564 1564 1565 1566 1563 1563 1564 1564 1564 1562 1561 1562 1562 1561 1562 1562 1562 1563 1562 1562 1560 1562 1562 1562 1563 1562 1562 1562 1563 1562 1561 1561 1562 1562 1560 1559 1559 1559 1560 1559 1558 1559 1559 1559 1558 1558 1558 1558 1557 1559 1558 1559 1559 1558 1559 1558 1555 1556 1556 1555 1557 1556 1556 1557 1555 1554 1555 1553 1553 1555 1553 1553 1553 1554 1554 1553 1554 1553 1553 1553 1552 1554 1554 1556 1556 1556 1556 1555 1556 1557 1556 1555 1554 1551 1551 1553 1553 1551 1548 1548 1547 1546 1546 1545 1546 1545 1544 1543 1543 1544 1544 1542 1543 1543 1542 1541 1542 1542 1544 1543 1543 1543 1542 1542 1541 1540 1541 1541 1541 1541 1541 1540 1538 1539 1539 1538 1539 1540 1539 1539 1539 1539 1539 1539 1539 1540 1538 1538 1539 1539 1539 1539 1541 1539 1538 1539 1540 1539 1538 1538 1538 1537 1538 1540 1539 1539 1538 1540 1541 1540 1540 1540 1540 1541 1542 1543 1543 1544 1544 1545 1544 1542 1543 1546 1545 1543 1545 1547 1546 1548 1547 1546 1546 1548 1548 1548 1547 1548 1549 1549 1549 1548 1548 1550 1549 1551 1549 1549 1550 1551 1550 1552 1552 1551 1551 1550 1550 1552 1552 1553 1552 1551 1550 1550 1550 1552 1550 1550 1553 1552 1551 1551 1550 1549 1550 1551 1550 1551 1550 1549 1550 1550 1548 1548 1548 1547 1548 1547 1546 1544 1545 1545 1545 1544 1544 1544 1543 1545 1543 1543 1545 1543 1542 1543 1543 1544 1545 1545 1546 1545 1547 1546 1546 1546 1546 1546 1546 1546 1547 1547 1547 1546 1547 1549 1549 1548 1549 1550 1551 1551 1552 1550 1551 1551 1551 1551 1552 1551 1551 1552 1551 1553 1554 1553 1553 1553 1553 1554 1555 1553 1554 1553 1553 1552 1552 1550 1550 1552 1555 1554 1555 1553 1553 1553 1552 1553 1553 1553 1551 1551 1551 1554 1555 1554 1557 1557 1556 1558 1559 1559 1561 1562 1562 1562 1563 1563 1564 1564 1567 1569 1569 1570 1572 1571 1573 1573 1575 1578 1578 1579 1581 1582 1581 1583 1586 1587 1589 1591 1590 1592 1593 1593 1595 1599 1598 1598 1603 1602 1606 1608 1610 1612 1615 1618 1622 1625 1628 1633 1635 1637 1639 1644 1645 1649 1651 1656 1661 1665 1667 1670 1675 1680 1684 1688 1694 1696 1700 1706 1710 1717 1723 1729 1734 1737 1742 1747 1752 1763 1779 1798 1821 1842 1865 1901 1930 1951 1980 1993 1979 1973 1973 1961 1945 1943 1960 1973 1983 1983 1960 1949 1932 1918 1908 1901 1894 1892 1892 1893 1895 1905 1909 1914 1924 1938 1945
1677 1673 1670 1669 1666 1664 1662 1660 1658 1654 1652 1651 1649 1647 1643 1643 1641 1638 1637 1634 1630 1630 1628 1627 1628 1625 1622 1622 1620 1619 1617 1615 1611 1609 1607 1606 1603 1602 1601 1600 1599 1598 1595 1593 1592 1592 1591 1591 1591 1589 1588 1587 1589 1587 1585 1585 1584 1585 1583 1582 1582 1580 1580 1579 1578 1578 1578 1577 1578 1576 1575 1575 1575 1574 1572 1574 1574 1573 1573 1572 1574 1574 1573 1573 1572 1574 1573 1573 1573 1571 1572 1574 1573 1573 1573 1571 1571 1571 1572 1571 1572 1573 1573 1572 1571 1570 1569 1571 1571 1570 1570 1568 1569 1571 1571 1569 1570 1569 1569 1568 1567 1569 1568 1568 1566 1566 1567 1567 1567 1566 1564 1564 1565 1564 1564 1564 1564 1564 1564 1566 1564 1564 1564 1565 1566 1566 1565 1565 1564 1563 1563 1563 1563 1565 1562 1563 1562 1561 1562 1563 1562 1562 1563 1561 1561 1563 1564 1562 1564 1563 1563 1562 1561 1562 1562 1562 1561 1559 1559 1561 1561 1561 1560 1559 1558 1559 1557 1558 1558 1559 1559 1559 1559 1559 1559 1558 1557 1556 1555 1556 1557 1557 1557 1557 1556 1556 1557 1556 1554 1554 1554 1554 1553 1554 1554 1554 1555 1553 1552 1553 1554 1554 1555 1557 1555 1556 1556 1557 1555 1556 1556 1557 1556 1555 1554 1553 1552 1552 1553 1553 1551 1551 1548 1548 1547 1548 1547 1547 1547 1545 1545 1546 1544 1543 1544 1544 1542 1542 1542 1542 1542 1542 1542 1543 1543 1543 1542 1542 1541 1541 1541 1541 1541 1540 1539 1539 1540 1540 1540 1539 1540 1538 1539 1540 1541 1539 1539 1539 1539 1538 1539 1538 1539 1540 1539 1539 1539 1538 1539 1539 1540 1540 1541 1538 1538 1540 1541 1543 1541 1540 1544 1544 1541 1541 1543 1542 1543 1544 1545 1545 1545 1545 1545 1546 1546 1549 1548 1546 1547 1548 1548 1548 1548 1548 1549 1550 1550 1550 1550 1550 1550 1551 1550 1551 1550 1552 1552 1551 1549 1550 1552 1553 1552 1551 1552 1553 1551 1551 1552 1552 1553 1553 1553 1552 1552 1553 1552 1552 1551 1552 1552 1553 1552 1552 1552 1550 1551 1551 1552 1551 1553 1552 1550 1549 1550 1552 1552 1550 1547 1548 1548 1547 1547 1546 1548 1548 1547 1547 1544 1545 1547 1544 1543 1544 1544 1543 1544 1545 1545 1544 1546 1547 1546 1545 1546 1546 1546 1547 1548 1546 1547 1548 1547 1547 1550 1550 1549 1549 1549 1548 1550 1551 1551 1550 1550 1552 1551 1550 1551 1551 1552 1551 1552 1552 1551 1551 1553 1552 1552 1553 1552 1552 1552 1554 1555 1555 1552 1553 1554 1554 1556 1554 1554 1552 1554 1553 1555 1556 1553 1554 1555 1555 1554 1555 1554 1555 1555 1554 1557 1558 1559 1559 1559 1560 1560 1562 1561 1562 1563 1565 1567 1569 1570 1570 1571 1569 1574 1573 1575 1578 1578 1580 1581 1582 1582 1583 1584 1585 1587 1590 1590 1590 1593 1592 1595 1597 1598 1600 1601 1605 1608 1607 1611 1613 1616 1619 1619 1623 1627 1631 1634 1637 1638 1644 1647 1650 1657 1659 1663 1666 1668 1670 1675 1679 1684 1689 1694 1699 1702 1706 1710 1715 1718 1722 1728 1731 1735 1739 1747 1756 1766 1784 1802 1829 1855 1876 1901 1924 1941 1959 1962 1950 1942 1938 1932 1934 1942 1941 1944 1940 1929 1921 1912 1902 1896 1892 1889 1888 1888 1891 1899 1900 1904 1908 1916 1929 1949
1680 1676 1674 1673 1670 1666 1665 1662 1659 1656 1654 1652 1648 1647 1645 1645 1643 1641 1640 1637 1633 1632 1633 1629 1625 1626 1624 1623 1622 1619 1616 1615 1613 1610 1608 1606 1604 1603 1602 1601 1599 1597 1596 1595 1594 1594 1593 1592 1591 1591 1590 1589 1589 1587 1587 1586 1584 1586 1584 1583 1582 1580 1581 1581 1581 1579 1580 1579 1578 1577 1577 1576 1576 1576 1574 1575 1574 1573 1574 1572 1573 1574 1574 1574 1571 1572 1573 1572 1572 1572 1573 1573 1573 1573 1574 1572 1570 1572 1572 1572 1572 1573 1573 1573 1571 1570 1572 1571 1571 1571 1572 1571 1572 1571 1570 1572 1572 1570 1569 1568 1570 1569 1569 1569 1569 1568 1568 1568 1566 1565 1566 1565 1566 1564 1564 1565 1565 1565 1563 1563 1565 1564 1564 1564 1565 1564 1564 1564 1563 1564 1563 1564 1564 1564 1562 1563 1564 1563 1564 1564 1564 1563 1563 1562 1562 1562 1564 1565 1563 1562 1563 1561 1562 1562 1561 1563 1560 1561 1562 1560 1560 1562 1560 1560 1558 1559 1558 1559 1558 1559 1559 1558 1559 1560 1559 1558 1558 1558 1555 1556 1556 1556 1555 1556 1557 1556 1555 1555 1554 1554 1554 1554 1554 1556 1555 1554 1554 1554 1555 1556 1557 1555 1556 1558 1557 1557 1557 1558 1557 1558 1558 1556 1555 1556 1555 1551 1552 1554 1553 1552 1552 1550 1550 1552 1551 1550 1549 1549 1549 1549 1546 1545 1547 1546 1544 1542 1543 1544 1545 1544 1543 1543 1542 1541 1542 1542 1542 1541 1541 1541 1540 1540 1541 1541 1541 1540 1539 1539 1541 1540 1541 1542 1542 1543 1540 1540 1540 1538 1539 1539 1540 1540 1540 1541 1541 1540 1542 1540 1540 1540 1540 1541 1542 1539 1540 1541 1541 1542 1540 1541 1544 1545 1543 1544 1544 1543 1543 1544 1545 1546 1546 1546 1547 1547 1547 1548 1550 1549 1550 1549 1549 1549 1551 1550 1554 1553 1551 1551 1551 1550 1553 1552 1552 1552 1553 1553 1553 1552 1552 1552 1553 1553 1554 1553 1554 1555 1554 1555 1554 1553 1554 1555 1554 1554 1555 1554 1553 1555 1556 1555 1553 1554 1555 1555 1554 1553 1555 1554 1553 1554 1555 1554 1553 1551 1552 1553 1553 1550 1550 1549 1550 1549 1548 1549 1550 1549 1548 1547 1547 1546 1546 1544 1544 1547 1545 1544 1544 1545 1546 1547 1546 1547 1547 1545 1544 1545 1545 1546 1549 1547 1545 1548 1549 1547 1547 1547 1547 1548 1548 1548 1549 1550 1549 1550 1551 1550 1551 1551 1551 1550 1551 1552 1553 1552 1550 1552 1553 1552 1551 1552 1553 1554 1553 1553 1554 1553 1553 1553 1554 1553 1551 1553 1553 1554 1555 1553 1556 1555 1553 1552 1556 1557 1556 1553 1551 1555 1556 1555 1556 1557 1558 1560 1561 1561 1562 1561 1562 1564 1565 1567 1567 1566 1569 1570 1571 1573 1573 1575 1576 1577 1577 1580 1581 1581 1582 1583 1586 1587 1586 1588 1590 1591 1591 1594 1595 1596 1601 1603 1605 1607 1608 1609 1611 1615 1618 1618 1621 1626 1629 1631 1631 1635 1637 1642 1648 1652 1655 1658 1662 1667 1670 1673 1678 1682 1686 1691 1695 1697 1702 1705 1709 1715 1720 1725 1731 1733 1734 1737 1743 1751 1760 1772 1788 1808 1827 1844 1865 1889 1903 1923 1943 1941 1926 1919 1919 1923 1926 1919 1917 1920 1914 1902 1894 1889 1886 1884 1884 1879 1884 1891 1897 1898 1899 1905 1921 1935 1946
1682 1680 1677 1675 1672 1670 1667 1665 1661 1659 1657 1654 1650 1650 1649 1647 1644 1642 1640 1637 1635 1634 1631 1630 1628 1626 1624 1623 1621 1619 1617 1615 1611 1609 1610 1608 1605 1604 1603 1600 1598 1599 1598 1596 1596 1596 1593 1594 1594 1591 1591 1591 1589 1589 1588 1586 1586 1585 1584 1584 1583 1582 1581 1582 1581 1580 1579 1578 1578 1577 1577 1577 1575 1576 1577 1575 1575 1574 1573 1574 1575 1574 1575 1574 1573 1574 1575 1574 1575 1574 1574 1574 1573 1573 1574 1573 1571 1572 1572 1572 1573 1573 1574 1574 1572 1571 1572 1572 1571 1572 1570 1571 1573 1572 1570 1571 1572 1572 1572 1570 1571 1571 1570 1568 1569 1568 1567 1567 1566 1565 1567 1566 1565 1565 1564 1565 1564 1564 1565 1565 1564 1565 1565 1565 1565 1565 1565 1564 1564 1564 1565 1565 1565 1565 1564 1563 1563 1564 1563 1563 1564 1564 1564 1564 1564 1564 1563 1564 1563 1562 1561 1563 1564 1563 1561 1562 1563 1562 1560 1561 1563 1562 1560 1560 1559 1560 1561 1560 1558 1559 1559 1558 1559 1559 1558 1560 1559 1558 1558 1556 1556 1556 1555 1555 1555 1555 1555 1555 1555 1555 1554 1553 1554 1556 1556 1556 1557 1556 1556 1557 1559 1558 1558 1557 1556 1556 1557 1558 1558 1556 1558 1556 1556 1556 1555 1552 1552 1553 1553 1551 1552 1551 1550 1551 1552 1553 1552 1550 1549 1548 1545 1544 1546 1548 1546 1544 1544 1544 1546 1547 1546 1544 1544 1543 1543 1544 1543 1542 1542 1542 1541 1542 1542 1542 1541 1541 1540 1541 1541 1541 1541 1542 1541 1541 1542 1541 1541 1539 1539 1540 1542 1542 1541 1540 1541 1541 1542 1543 1542 1542 1541 1542 1542 1541 1543 1543 1543 1541 1543 1542 1543 1543 1544 1546 1544 1544 1545 1548 1548 1547 1548 1549 1549 1550 1550 1549 1551 1550 1550 1551 1551 1551 1553 1551 1552 1553 1553 1554 1555 1553 1552 1552 1554 1555 1555 1555 1555 1553 1555 1556 1558 1556 1556 1556 1556 1558 1557 1558 1556 1554 1554 1557 1557 1555 1557 1557 1557 1558 1559 1556 1558 1555 1555 1556 1556 1556 1558 1557 1556 1556 1557 1557 1556 1556 1556 1555 1556 1556 1555 1553 1552 1551 1550 1551 1550 1550 1549 1547 1548 1547 1546 1544 1545 1547 1547 1546 1544 1544 1546 1547 1545 1545 1546 1544 1544 1544 1546 1546 1549 1548 1548 1551 1550 1548 1549 1547 1546 1547 1550 1549 1550 1549 1549 1550 1551 1553 1553 1552 1551 1552 1552 1552 1551 1552 1552 1552 1551 1552 1552 1553 1552 1553 1553 1553 1554 1554 1553 1554 1557 1556 1554 1554 1554 1554 1554 1553 1553 1555 1554 1553 1554 1555 1553 1554 1551 1554 1556 1557 1555 1558 1559 1559 1560 1561 1562 1562 1562 1564 1565 1566 1566 1567 1569 1570 1570 1571 1575 1575 1576 1576 1576 1577 1579 1580 1580 1582 1583 1584 1586 1589 1591 1593 1593 1595 1597 1598 1601 1601 1603 1607 1608 1609 1611 1614 1617 1618 1622 1626 1629 1632 1633 1634 1640 1643 1647 1650 1656 1661 1663 1667 1669 1673 1677 1681 1685 1688 1694 1697 1700 1705 1708 1717 1723 1730 1740 1752 1753 1748 1748 1749 1754 1759 1769 1783 1800 1822 1843 1856 1872 1894 1912 1912 1916 1910 1907 1908 1909 1905 1901 1905 1904 1896 1885 1882 1880 1880 1879 1881 1885 1888 1889 1890 1896 1910 1926 1942 1959
1686 1683 1678 1676 1675 1673 1670 1667 1664 1661 1659 1655 1653 1651 1649 1646 1645 1642 1641 1639 1638 1636 1635 1633 1630 1629 1625 1625 1622 1621 1619 1617 1613 1611 1610 1609 1606 1605 1603 1602 1601 1600 1598 1598 1598 1597 1597 1596 1594 1591 1592 1590 1591 1589 1588 1587 1586 1585 1586 1585 1584 1583 1582 1582 1582 1582 1581 1581 1580 1579 1578 1577 1577 1576 1576 1576 1575 1574 1574 1574 1574 1574 1576 1574 1574 1575 1576 1576 1574 1573 1575 1574 1575 1575 1575 1573 1574 1574 1575 1574 1575 1573 1571 1571 1572 1572 1573 1572 1574 1574 1574 1572 1573 1572 1571 1573 1573 1573 1571 1569 1570 1571 1570 1569 1568 1569 1567 1568 1567 1566 1567 1566 1565 1565 1564 1564 1565 1564 1566 1565 1566 1564 1566 1566 1565 1565 1566 1564 1563 1565 1565 1565 1563 1564 1564 1566 1566 1565 1565 1564 1563 1563 1563 1563 1564 1564 1563 1563 1563 1563 1562 1564 1564 1563 1563 1563 1561 1561 1560 1561 1561 1560 1561 1561 1560 1561 1560 1559 1560 1561 1560 1558 1559 1559 1559 1560 1558 1559 1559 1557 1557 1556 1557 1556 1556 1555 1557 1556 1556 1556 1555 1554 1555 1556 1556 1556 1557 1557 1559 1559 1559 1559 1559 1557 1558 1558 1557 1558 1559 1558 1556 1555 1555 1554 1554 1553 1554 1555 1554 1552 1552 1551 1552 1551 1553 1552 1553 1552 1549 1548 1547 1546 1547 1547 1548 1546 1546 1545 1549 1547 1547 1546 1548 1546 1546 1546 1545 1542 1543 1543 1543 1543 1542 1542 1542 1541 1541 1541 1541 1541 1541 1540 1541 1541 1542 1543 1542 1540 1540 1540 1540 1540 1541 1542 1541 1543 1543 1544 1542 1541 1543 1543 1542 1542 1543 1543 1546 1543 1544 1545 1544 1544 1546 1545 1546 1548 1548 1550 1550 1550 1550 1550 1551 1551 1552 1551 1552 1552 1552 1554 1554 1553 1553 1555 1555 1556 1557 1557 1558 1555 1555 1555 1556 1556 1555 1556 1557 1556 1556 1557 1558 1559 1558 1558 1555 1558 1560 1558 1559 1558 1559 1559 1558 1557 1558 1558 1558 1559 1559 1558 1559 1558 1558 1559 1559 1558 1559 1559 1559 1558 1559 1559 1559 1559 1558 1556 1558 1556 1558 1556 1556 1556 1554 1553 1552 1551 1551 1550 1549 1547 1548 1547 1547 1548 1549 1546 1546 1546 1545 1544 1546 1546 1546 1546 1547 1546 1546 1547 1548 1549 1548 1549 1547 1547 1549 1549 1550 1550 1550 1550 1549 1548 1550 1550 1551 1551 1552 1552 1552 1552 1551 1552 1553 1551 1550 1552 1553 1553 1550 1552 1552 1553 1553 1553 1553 1551 1551 1552 1554 1557 1554 1553 1555 1554 1553 1553 1553 1554 1554 1554 1555 1554 1555 1555 1553 1552 1553 1553 1556 1557 1555 1557 1559 1559 1559 1562 1562 1565 1564 1564 1564 1567 1568 1569 1570 1570 1572 1573 1573 1576 1577 1578 1580 1579 1582 1584 1584 1585 1588 1589 1590 1592 1595 1595 1598 1599 1599 1602 1604 1607 1609 1611 1612 1615 1620 1620 1621 1625 1629 1631 1634 1636 1641 1645 1646 1650 1655 1658 1661 1667 1668 1671 1676 1677 1687 1690 1692 1696 1698 1701 1707 1721 1727 1735 1745 1758 1768 1761 1763 1760 1754 1762 1771 1775 1783 1799 1813 1830 1849 1862 1871 1882 1896 1902 1896 1899 1895 1895 1893 1892 1888 1884 1879 1875 1875 1874 1875 1878 1882 1882 1883 1887 1896 1907 1920 1934 1954
1688 1684 1681 1680 1678 1675 1672 1672 1668 1665 1661 1657 1655 1652 1650 1647 1644 1644 1644 1641 1639 1639 1636 1635 1632 1631 1629 1627 1625 1624 1621 1619 1616 1614 1612 1609 1608 1605 1604 1604 1603 1601 1601 1600 1598 1598 1598 1598 1595 1594 1594 1591 1592 1592 1591 1589 1589 1587 1585 1586 1584 1583 1584 1583 1583 1583 1581 1579 1580 1579 1578 1578 1578 1577 1577 1578 1576 1575 1575 1574 1574 1574 1575 1575 1575 1576 1577 1576 1576 1576 1575 1574 1576 1576 1574 1574 1574 1574 1574 1575 1576 1574 1573 1573 1572 1573 1573 1574 1573 1573 1574 1573 1574 1574 1573 1573 1571 1572 1571 1571 1571 1570 1569 1570 1571 1571 1568 1568 1567 1566 1566 1566 1565 1566 1566 1567 1567 1566 1566 1567 1566 1564 1567 1567 1567 1566 1564 1563 1565 1566 1566 1566 1566 1565 1563 1565 1566 1565 1564 1564 1563 1565 1565 1564 1566 1566 1564 1564 1564 1566 1564 1565 1565 1562 1562 1562 1562 1563 1562 1562 1561 1561 1561 1561 1559 1560 1561 1559 1559 1559 1558 1559 1559 1559 1559 1559 1558 1558 1559 1558 1558 1558 1558 1556 1555 1556 1556 1555 1556 1556 1555 1555 1556 1559 1560 1559 1558 1558 1559 1559 1557 1557 1559 1559 1559 1560 1560 1559 1559 1559 1558 1558 1558 1557 1557 1555 1555 1555 1555 1555 1554 1553 1554 1552 1553 1554 1553 1551 1551 1551 1552 1548 1551 1549 1548 1548 1549 1546 1548 1550 1549 1549 1548 1545 1546 1545 1545 1544 1544 1545 1544 1544 1543 1544 1543 1543 1542 1541 1543 1544 1542 1542 1542 1543 1544 1541 1541 1540 1541 1541 1541 1543 1544 1543 1543 1543 1544 1544 1544 1545 1547 1547 1544 1544 1545 1545 1546 1547 1547 1547 1547 1547 1546 1547 1547 1548 1549 1552 1553 1552 1552 1552 1553 1553 1552 1553 1554 1554 1552 1554 1556 1556 1557 1558 1556 1556 1558 1558 1557 1556 1558 1558 1558 1556 1556 1558 1557 1557 1559 1558 1557 1558 1559 1560 1560 1562 1560 1559 1560 1561 1561 1559 1560 1560 1560 1560 1561 1560 1559 1559 1561 1560 1560 1558 1559 1561 1561 1561 1561 1559 1560 1558 1557 1559 1557 1556 1557 1557 1558 1559 1557 1556 1557 1557 1554 1551 1551 1552 1551 1551 1550 1549 1549 1548 1547 1547 1546 1545 1547 1546 1546 1545 1546 1546 1548 1548 1546 1548 1550 1546 1546 1547 1547 1546 1548 1547 1548 1550 1551 1551 1549 1551 1551 1550 1550 1551 1553 1551 1553 1553 1554 1551 1550 1549 1550 1551 1552 1551 1552 1553 1554 1552 1552 1551 1553 1553 1553 1553 1553 1555 1555 1553 1552 1553 1553 1552 1553 1552 1553 1556 1553 1555 1556 1554 1554 1554 1554 1554 1554 1556 1557 1557 1560 1559 1560 1563 1563 1562 1564 1566 1563 1567 1568 1570 1571 1572 1574 1573 1574 1574 1575 1576 1578 1580 1583 1586 1586 1585 1587 1589 1590 1592 1594 1596 1598 1601 1602 1604 1607 1607 1608 1611 1612 1614 1618 1620 1624 1628 1629 1631 1636 1637 1641 1644 1648 1650 1654 1657 1662 1665 1669 1670 1673 1679 1689 1694 1695 1697 1698 1703 1710 1715 1730 1739 1758 1778 1788 1777 1768 1765 1765 1763 1769 1781 1788 1791 1796 1806 1820 1832 1844 1871 1895 1895 1887 1887 1888 1886 1881 1881 1878 1874 1869 1870 1869 1870 1876 1878 1879 1877 1878 1886 1892 1900 1913 1928 1946
1692 1687 1685 1682 1681 1678 1676 1674 1670 1666 1662 1660 1658 1656 1651 1648 1648 1646 1645 1642 1640 1639 1636 1634 1634 1632 1630 1629 1627 1625 1623 1621 1619 1617 1614 1613 1610 1609 1607 1605 1604 1602 1601 1601 1600 1600 1599 1599 1596 1596 1596 1592 1592 1593 1592 1590 1590 1589 1587 1587 1587 1586 1584 1584 1584 1584 1582 1581 1579 1578 1578 1579 1578 1578 1578 1578 1577 1578 1577 1577 1576 1575 1575 1576 1576 1576 1577 1576 1575 1576 1575 1575 1576 1575 1575 1573 1573 1574 1574 1575 1576 1574 1575 1576 1572 1573 1575 1573 1573 1573 1574 1574 1573 1571 1572 1572 1573 1573 1574 1573 1572 1571 1571 1571 1571 1570 1570 1568 1566 1567 1567 1566 1565 1567 1566 1567 1566 1567 1567 1566 1566 1566 1568 1568 1567 1567 1567 1566 1565 1566 1566 1565 1564 1565 1565 1564 1564 1566 1566 1564 1565 1565 1564 1563 1563 1563 1564 1566 1564 1562 1564 1564 1563 1563 1563 1562 1561 1561 1561 1561 1562 1561 1562 1561 1561 1562 1561 1560 1561 1560 1560 1560 1561 1559 1558 1557 1558 1558 1558 1559 1559 1557 1558 1556 1555 1556 1556 1557 1556 1557 1557 1559 1558 1560 1560 1560 1560 1559 1561 1562 1562 1560 1559 1560 1561 1561 1561 1562 1561 1560 1560 1559 1560 1559 1558 1558 1558 1557 1556 1556 1556 1555 1555 1556 1554 1556 1557 1555 1554 1554 1554 1551 1551 1551 1551 1552 1552 1550 1550 1550 1550 1549 1548 1547 1548 1548 1547 1548 1546 1545 1543 1544 1544 1546 1545 1543 1543 1542 1544 1543 1544 1544 1543 1544 1543 1542 1543 1543 1543 1543 1544 1544 1545 1546 1546 1545 1547 1547 1546 1545 1547 1546 1547 1549 1547 1547 1547 1550 1549 1548 1550 1549 1550 1550 1550 1549 1551 1552 1553 1554 1554 1552 1554 1554 1553 1553 1556 1557 1556 1557 1557 1558 1559 1559 1558 1558 1558 1560 1561 1559 1560 1559 1560 1558 1558 1559 1559 1558 1561 1559 1559 1559 1561 1561 1562 1562 1563 1563 1561 1562 1562 1561 1561 1560 1563 1562 1563 1562 1561 1562 1562 1561 1561 1562 1561 1561 1560 1560 1562 1561 1561 1560 1559 1560 1560 1558 1559 1560 1559 1559 1559 1557 1557 1557 1557 1556 1554 1555 1554 1553 1552 1550 1549 1548 1549 1550 1547 1547 1548 1548 1548 1547 1547 1547 1548 1548 1548 1547 1548 1548 1548 1547 1544 1546 1547 1549 1550 1550 1551 1553 1553 1552 1550 1551 1551 1551 1551 1552 1552 1552 1553 1553 1552 1551 1552 1550 1552 1552 1551 1553 1554 1553 1551 1549 1551 1552 1554 1553 1553 1553 1553 1554 1551 1554 1555 1553 1554 1554 1554 1557 1556 1555 1554 1552 1555 1555 1555 1554 1554 1555 1556 1558 1559 1558 1559 1561 1563 1564 1565 1565 1566 1568 1568 1570 1570 1571 1572 1574 1574 1574 1574 1574 1578 1580 1581 1585 1586 1588 1589 1590 1591 1593 1595 1597 1599 1601 1603 1605 1607 1609 1609 1613 1613 1616 1619 1621 1624 1628 1633 1634 1633 1634 1640 1643 1645 1649 1654 1655 1660 1663 1665 1672 1681 1683 1697 1707 1701 1703 1704 1712 1719 1722 1735 1744 1758 1779 1795 1794 1781 1773 1775 1772 1788 1797 1799 1799 1805 1815 1828 1840 1858 1886 1904 1894 1880 1878 1881 1887 1882 1876 1871 1869 1865 1865 1865 1871 1875 1875 1873 1873 1877 1881 1889 1898 1909 1923 1941
1694 1692 1688 1685 1683 1681 1678 1674 1670 1668 1664 1663 1659 1658 1656 1652 1651 1649 1646 1645 1640 1641 1638 1635 1635 1634 1631 1629 1627 1625 1624 1624 1622 1621 1617 1614 1612 1612 1609 1606 1605 1605 1604 1603 1602 1601 1599 1599 1599 1597 1596 1595 1595 1594 1592 1590 1590 1589 1587 1588 1586 1585 1586 1584 1583 1582 1582 1581 1580 1580 1579 1580 1578 1578 1578 1578 1577 1577 1578 1577 1576 1575 1576 1576 1576 1578 1578 1576 1577 1577 1576 1576 1576 1577 1576 1575 1574 1574 1576 1575 1576 1576 1575 1576 1574 1574 1576 1575 1573 1574 1575 1574 1573 1573 1574 1573 1575 1575 1574 1572 1572 1572 1572 1572 1572 1571 1569 1568 1568 1566 1566 1565 1566 1567 1568 1567 1567 1568 1567 1565 1565 1567 1566 1566 1567 1568 1568 1566 1566 1566 1565 1567 1566 1565 1565 1566 1567 1566 1565 1564 1564 1565 1566 1563 1564 1565 1565 1566 1565 1564 1564 1565 1563 1563 1563 1563 1562 1562 1561 1560 1563 1561 1560 1561 1561 1561 1561 1561 1560 1560 1560 1560 1559 1560 1560 1559 1558 1556 1557 1558 1560 1559 1558 1555 1557 1557 1556 1557 1558 1559 1559 1561 1561 1562 1562 1561 1561 1562 1563 1565 1563 1563 1563 1563 1563 1563 1563 1563 1562 1561 1561 1562 1563 1563 1560 1559 1559 1558 1558 1558 1558 1558 1558 1556 1556 1556 1555 1555 1555 1554 1555 1551 1552 1555 1552 1551 1550 1552 1549 1550 1552 1552 1550 1548 1549 1549 1549 1548 1546 1545 1545 1545 1546 1546 1546 1546 1546 1545 1545 1543 1544 1544 1544 1544 1544 1546 1545 1545 1546 1548 1547 1547 1546 1548 1546 1547 1550 1550 1548 1549 1549 1548 1548 1550 1549 1551 1551 1552 1552 1552 1551 1551 1553 1553 1550 1552 1553 1552 1553 1555 1555 1555 1556 1554 1556 1555 1557 1558 1557 1559 1559 1560 1560 1559 1558 1560 1560 1560 1562 1561 1560 1560 1560 1559 1561 1562 1561 1560 1562 1561 1562 1561 1563 1564 1564 1563 1563 1564 1564 1564 1564 1563 1562 1562 1565 1564 1566 1564 1562 1563 1563 1564 1563 1563 1563 1563 1562 1563 1564 1562 1562 1562 1562 1561 1562 1561 1559 1559 1559 1557 1558 1558 1556 1557 1556 1556 1556 1555 1554 1553 1553 1552 1551 1551 1552 1552 1550 1548 1550 1550 1548 1548 1550 1550 1548 1549 1549 1548 1547 1546 1548 1549 1549 1551 1548 1548 1552 1551 1549 1549 1550 1551 1551 1550 1551 1551 1552 1552 1553 1551 1551 1553 1551 1551 1553 1552 1554 1553 1552 1554 1556 1554 1554 1553 1551 1553 1554 1552 1552 1553 1553 1553 1553 1553 1553 1550 1554 1554 1548 1554 1556 1552 1553 1553 1552 1553 1556 1555 1554 1557 1556 1556 1557 1558 1560 1559 1560 1563 1563 1562 1564 1564 1566 1567 1570 1573 1572 1573 1573 1574 1575 1576 1579 1581 1581 1584 1586 1587 1587 1590 1591 1594 1595 1597 1600 1602 1603 1607 1610 1607 1608 1612 1615 1618 1620 1622 1624 1627 1629 1632 1633 1636 1639 1642 1645 1648 1652 1653 1666 1681 1681 1681 1687 1688 1706 1719 1712 1708 1712 1721 1739 1752 1767 1780 1783 1792 1813 1811 1798 1784 1786 1781 1790 1796 1799 1805 1812 1831 1855 1873 1890 1894 1892 1877 1871 1870 1871 1883 1884 1873 1866 1861 1864 1864 1861 1869 1871 1869 1870 1870 1878 1885 1892 1899 1910 1922 1934
1698 1696 1691 1689 1688 1684 1678 1676 1672 1671 1669 1666 1663 1661 1658 1655 1653 1651 1651 1645 1644 1644 1641 1639 1636 1635 1634 1631 1629 1627 1626 1626 1623 1622 1618 1616 1615 1613 1610 1607 1607 1606 1605 1605 1603 1601 1601 1602 1600 1598 1598 1597 1594 1593 1591 1592 1592 1589 1591 1589 1588 1587 1586 1586 1584 1583 1582 1581 1581 1581 1582 1581 1579 1578 1578 1580 1578 1578 1578 1578 1578 1577 1578 1578 1577 1577 1577 1577 1577 1577 1578 1578 1578 1578 1577 1576 1576 1577 1577 1577 1577 1576 1576 1576 1574 1576 1577 1577 1575 1576 1576 1574 1575 1575 1574 1575 1575 1574 1573 1574 1571 1570 1571 1572 1572 1571 1569 1569 1567 1567 1569 1568 1568 1568 1568 1569 1567 1567 1566 1568 1567 1567 1567 1567 1567 1567 1566 1567 1567 1566 1567 1567 1567 1566 1565 1566 1567 1566 1565 1564 1564 1563 1565 1566 1566 1565 1565 1565 1564 1563 1563 1563 1564 1564 1565 1564 1564 1563 1562 1562 1562 1562 1561 1561 1561 1561 1562 1561 1562 1562 1561 1559 1557 1559 1560 1559 1559 1558 1558 1559 1560 1559 1557 1557 1556 1558 1558 1559 1560 1560 1562 1563 1563 1564 1564 1563 1564 1564 1565 1565 1564 1564 1564 1565 1565 1566 1567 1567 1564 1565 1564 1563 1563 1563 1563 1562 1561 1561 1561 1561 1559 1560 1561 1559 1558 1558 1556 1556 1557 1557 1555 1553 1554 1555 1553 1553 1555 1554 1552 1554 1553 1554 1554 1552 1549 1550 1550 1547 1546 1547 1546 1546 1548 1546 1547 1547 1547 1547 1546 1547 1546 1546 1546 1547 1549 1549 1548 1547 1548 1549 1548 1549 1548 1549 1548 1551 1551 1550 1550 1551 1554 1552 1551 1551 1551 1555 1555 1554 1555 1556 1556 1555 1555 1555 1556 1555 1556 1556 1554 1556 1556 1559 1559 1559 1558 1559 1559 1560 1559 1561 1562 1562 1560 1561 1561 1562 1564 1564 1562 1565 1564 1563 1562 1561 1562 1565 1564 1563 1563 1563 1564 1564 1564 1565 1565 1565 1565 1565 1566 1566 1564 1564 1565 1564 1564 1567 1568 1567 1566 1565 1565 1565 1565 1565 1565 1565 1564 1564 1564 1564 1565 1565 1564 1561 1563 1562 1559 1560 1561 1561 1561 1559 1559 1558 1556 1557 1559 1558 1557 1557 1555 1553 1554 1555 1553 1552 1551 1551 1549 1549 1549 1548 1550 1549 1549 1550 1549 1550 1550 1550 1549 1549 1549 1548 1549 1550 1549 1550 1549 1550 1550 1549 1551 1552 1552 1549 1551 1553 1553 1554 1554 1551 1551 1550 1551 1552 1553 1553 1554 1554 1556 1553 1552 1554 1553 1555 1552 1553 1549 1552 1555 1554 1556 1554 1552 1550 1556 1555 1546 1550 1555 1555 1554 1554 1554 1555 1556 1554 1556 1558 1558 1558 1557 1558 1557 1560 1561 1562 1563 1562 1563 1565 1567 1568 1570 1569 1569 1572 1573 1573 1575 1578 1580 1580 1582 1585 1587 1588 1589 1589 1590 1595 1596 1597 1600 1602 1605 1604 1608 1611 1613 1613 1614 1618 1620 1622 1623 1626 1629 1629 1633 1636 1638 1640 1642 1646 1649 1653 1667 1689 1699 1705 1695 1693 1703 1719 1723 1715 1714 1724 1745 1761 1780 1791 1805 1814 1819 1810 1804 1802 1799 1792 1786 1792 1797 1804 1811 1826 1848 1872 1891 1889 1874 1863 1861 1860 1864 1875 1880 1868 1858 1856 1859 1860 1861 1863 1865 1865 1864 1870 1877 1887 1895 1902 1909 1919 1929
1702 1698 1696 1692 1689 1688 1684 1682 1678 1673 1673 1671 1668 1664 1660 1658 1656 1653 1651 1649 1646 1644 1643 1640 1640 1636 1635 1633 1632 1630 1629 1628 1624 1623 1622 1619 1615 1613 1610 1608 1608 1608 1607 1607 1604 1605 1604 1603 1602 1600 1598 1596 1596 1594 1593 1593 1593 1591 1590 1589 1588 1588 1587 1587 1584 1585 1584 1582 1583 1581 1581 1581 1581 1580 1578 1580 1580 1579 1579 1579 1579 1578 1578 1578 1578 1577 1578 1577 1578 1577 1578 1578 1579 1579 1578 1576 1576 1578 1577 1577 1577 1577 1576 1576 1575 1576 1576 1577 1577 1576 1575 1576 1575 1577 1575 1575 1575 1574 1574 1575 1573 1571 1571 1571 1571 1571 1571 1569 1567 1567 1568 1568 1570 1568 1567 1570 1568 1568 1568 1568 1567 1568 1568 1568 1569 1569 1567 1567 1567 1569 1569 1567 1566 1566 1566 1564 1567 1566 1566 1564 1564 1566 1567 1566 1566 1567 1567 1566 1565 1565 1563 1565 1564 1565 1566 1565 1564 1564 1563 1561 1563 1563 1562 1563 1563 1561 1563 1562 1562 1562 1562 1561 1560 1560 1560 1559 1559 1560 1559 1560 1559 1558 1559 1558 1559 1559 1561 1562 1562 1562 1565 1565 1564 1565 1566 1566 1567 1567 1568 1568 1567 1568 1568 1567 1567 1568 1569 1568 1566 1566 1566 1565 1565 1567 1564 1566 1565 1564 1564 1565 1564 1562 1561 1560 1561 1560 1561 1559 1559 1559 1557 1556 1556 1555 1555 1555 1556 1554 1554 1554 1555 1555 1555 1551 1551 1553 1552 1548 1549 1550 1548 1547 1548 1547 1549 1550 1548 1549 1548 1549 1549 1547 1548 1552 1551 1551 1550 1551 1552 1552 1550 1550 1550 1550 1552 1554 1553 1553 1552 1554 1557 1554 1554 1554 1555 1555 1558 1558 1557 1558 1558 1557 1557 1557 1559 1559 1559 1559 1558 1558 1558 1560 1558 1560 1560 1560 1561 1563 1564 1563 1563 1565 1563 1564 1565 1565 1564 1564 1563 1564 1564 1565 1563 1564 1565 1565 1563 1565 1565 1566 1566 1567 1568 1568 1569 1568 1569 1571 1570 1568 1567 1566 1568 1568 1566 1568 1568 1566 1568 1569 1568 1566 1567 1566 1566 1567 1567 1566 1568 1567 1566 1565 1566 1564 1563 1562 1562 1561 1561 1562 1561 1561 1560 1559 1557 1560 1559 1558 1558 1556 1557 1558 1556 1556 1555 1556 1554 1553 1552 1551 1552 1549 1550 1549 1548 1551 1551 1551 1552 1551 1549 1551 1552 1551 1549 1551 1549 1550 1549 1552 1553 1550 1550 1551 1552 1551 1551 1552 1552 1551 1551 1549 1551 1553 1552 1552 1552 1552 1554 1555 1554 1552 1552 1553 1554 1553 1552 1553 1553 1554 1552 1552 1552 1553 1550 1550 1548 1535 1546 1559 1554 1551 1555 1555 1555 1555 1554 1553 1554 1556 1558 1558 1557 1558 1559 1560 1560 1561 1561 1563 1564 1564 1564 1566 1568 1567 1569 1572 1575 1576 1576 1578 1580 1580 1582 1585 1587 1587 1591 1591 1592 1595 1597 1597 1599 1602 1605 1604 1607 1610 1611 1613 1618 1619 1620 1623 1624 1629 1631 1632 1635 1637 1637 1640 1644 1648 1650 1656 1662 1676 1696 1701 1691 1694 1698 1706 1719 1727 1722 1726 1742 1755 1769 1783 1801 1813 1821 1821 1816 1811 1809 1798 1792 1794 1797 1802 1808 1816 1829 1850 1858 1859 1856 1852 1851 1851 1854 1857 1858 1858 1852 1854 1857 1856 1856 1859 1862 1861 1862 1871 1878 1884 1891 1896 1903 1912 1924
1705 1705 1700 1697 1693 1691 1686 1683 1679 1678 1677 1673 1669 1666 1663 1662 1659 1657 1653 1652 1649 1646 1646 1644 1640 1638 1637 1635 1634 1633 1630 1629 1627 1624 1623 1620 1618 1615 1613 1612 1610 1608 1608 1609 1608 1607 1604 1604 1603 1602 1600 1599 1598 1597 1595 1594 1594 1593 1591 1591 1589 1589 1588 1587 1585 1584 1584 1584 1584 1582 1582 1582 1582 1581 1580 1581 1580 1580 1580 1581 1580 1579 1578 1579 1579 1578 1580 1579 1580 1580 1579 1579 1580 1578 1578 1577 1577 1578 1578 1579 1579 1578 1577 1578 1575 1576 1577 1577 1576 1577 1575 1576 1576 1577 1575 1574 1575 1576 1575 1576 1576 1574 1572 1572 1571 1573 1571 1569 1569 1569 1567 1569 1569 1568 1568 1570 1569 1568 1569 1569 1567 1568 1567 1567 1568 1568 1569 1568 1569 1567 1568 1567 1566 1566 1567 1565 1566 1566 1566 1565 1567 1567 1568 1567 1565 1566 1567 1567 1565 1566 1566 1563 1563 1565 1565 1564 1564 1565 1563 1563 1563 1563 1562 1564 1563 1562 1561 1562 1562 1563 1561 1561 1561 1561 1560 1559 1559 1559 1560 1560 1558 1558 1559 1561 1563 1562 1563 1564 1566 1564 1566 1567 1567 1567 1568 1568 1569 1568 1568 1570 1569 1571 1570 1570 1570 1570 1571 1570 1569 1568 1568 1567 1568 1570 1568 1567 1567 1566 1565 1566 1565 1565 1566 1565 1565 1564 1563 1561 1560 1560 1560 1557 1557 1557 1557 1557 1557 1555 1554 1554 1555 1555 1555 1554 1555 1554 1553 1553 1554 1554 1552 1552 1552 1550 1550 1549 1549 1549 1551 1551 1551 1550 1552 1553 1552 1554 1553 1555 1554 1552 1553 1553 1552 1554 1554 1556 1556 1556 1555 1558 1558 1556 1557 1558 1557 1558 1559 1560 1561 1561 1562 1562 1561 1561 1562 1562 1562 1562 1561 1562 1562 1562 1562 1563 1563 1563 1564 1563 1564 1565 1565 1564 1564 1565 1567 1568 1567 1565 1566 1566 1566 1566 1567 1567 1567 1567 1567 1568 1568 1568 1569 1569 1567 1570 1571 1569 1570 1570 1570 1570 1570 1570 1571 1570 1569 1569 1569 1570 1570 1569 1569 1569 1569 1570 1569 1570 1568 1569 1570 1568 1567 1567 1568 1567 1566 1566 1565 1564 1563 1563 1563 1563 1562 1562 1560 1561 1560 1560 1559 1558 1559 1558 1558 1557 1557 1555 1556 1555 1553 1554 1553 1551 1550 1551 1551 1551 1552 1552 1552 1551 1553 1550 1551 1552 1550 1550 1551 1550 1551 1553 1552 1551 1549 1550 1552 1551 1551 1551 1550 1552 1551 1552 1552 1552 1553 1554 1552 1551 1554 1553 1552 1553 1554 1554 1556 1556 1552 1552 1552 1553 1552 1551 1551 1557 1555 1556 1554 1546 1547 1561 1552 1550 1557 1558 1554 1557 1555 1554 1555 1555 1554 1554 1556 1558 1556 1559 1559 1562 1563 1561 1563 1562 1564 1566 1569 1569 1568 1571 1575 1575 1576 1578 1579 1581 1584 1584 1586 1588 1591 1593 1594 1598 1600 1599 1603 1606 1607 1609 1610 1613 1614 1616 1619 1620 1623 1623 1626 1631 1633 1634 1635 1637 1640 1642 1646 1648 1652 1658 1664 1670 1680 1685 1690 1707 1716 1718 1725 1737 1737 1734 1745 1767 1780 1795 1805 1807 1813 1821 1815 1805 1802 1796 1792 1794 1799 1801 1806 1812 1820 1831 1833 1836 1840 1844 1846 1846 1846 1848 1850 1848 1850 1851 1851 1850 1854 1857 1859 1859 1862 1868 1872 1880 1882 1885 1890 1901 1914
1709 1707 1704 1699 1698 1693 1690 1687 1684 1681 1678 1674 1671 1669 1665 1663 1659 1659 1657 1655 1650 1648 1646 1644 1642 1642 1640 1637 1635 1635 1633 1631 1628 1627 1625 1623 1621 1617 1614 1613 1612 1610 1609 1609 1608 1607 1608 1605 1604 1604 1601 1600 1599 1598 1595 1596 1595 1594 1592 1590 1589 1589 1588 1588 1587 1585 1585 1585 1583 1583 1583 1582 1582 1583 1582 1581 1581 1581 1583 1581 1582 1580 1579 1580 1579 1579 1581 1580 1580 1580 1578 1580 1580 1580 1578 1578 1578 1578 1579 1578 1580 1578 1580 1579 1576 1576 1576 1576 1578 1577 1576 1575 1575 1577 1578 1577 1575 1577 1577 1575 1573 1572 1572 1572 1572 1572 1571 1570 1570 1569 1569 1570 1570 1569 1569 1569 1569 1569 1568 1568 1568 1568 1567 1567 1569 1569 1569 1567 1568 1567 1566 1567 1566 1567 1567 1566 1567 1566 1566 1566 1567 1567 1566 1566 1565 1565 1567 1567 1564 1567 1567 1564 1564 1565 1566 1563 1562 1563 1564 1563 1562 1565 1563 1562 1563 1563 1562 1563 1562 1561 1562 1560 1560 1562 1561 1560 1559 1559 1558 1560 1559 1561 1561 1562 1564 1565 1566 1566 1568 1569 1569 1568 1568 1570 1571 1571 1571 1571 1572 1572 1573 1574 1571 1571 1571 1572 1572 1572 1573 1570 1570 1570 1570 1571 1570 1569 1569 1570 1568 1569 1568 1568 1570 1568 1567 1564 1564 1564 1564 1564 1563 1560 1560 1561 1561 1560 1558 1558 1556 1556 1557 1557 1555 1556 1557 1557 1555 1558 1558 1555 1554 1554 1553 1552 1554 1554 1554 1553 1554 1550 1553 1553 1553 1556 1554 1554 1554 1555 1557 1556 1556 1556 1556 1558 1559 1559 1559 1561 1560 1560 1561 1560 1560 1560 1561 1562 1562 1561 1562 1564 1564 1564 1563 1564 1567 1565 1564 1565 1566 1565 1564 1564 1563 1564 1565 1565 1565 1564 1567 1567 1566 1566 1567 1569 1567 1569 1569 1569 1567 1567 1568 1570 1570 1570 1569 1569 1569 1570 1571 1569 1570 1572 1570 1569 1570 1572 1571 1571 1571 1572 1574 1573 1571 1570 1571 1572 1572 1572 1571 1572 1571 1570 1571 1571 1571 1571 1572 1571 1571 1571 1569 1568 1569 1567 1566 1566 1565 1565 1565 1566 1565 1565 1563 1563 1564 1564 1562 1561 1561 1561 1561 1561 1561 1557 1558 1557 1557 1556 1556 1558 1554 1554 1553 1552 1551 1553 1553 1554 1553 1552 1555 1554 1552 1552 1552 1552 1550 1549 1551 1551 1553 1552 1549 1551 1552 1550 1551 1552 1554 1551 1550 1551 1553 1552 1552 1550 1551 1552 1555 1553 1552 1553 1552 1554 1554 1552 1553 1551 1553 1554 1554 1555 1553 1554 1554 1557 1554 1550 1558 1560 1551 1551 1558 1559 1559 1556 1556 1554 1554 1554 1554 1555 1557 1557 1555 1556 1559 1560 1561 1561 1563 1562 1564 1567 1568 1569 1570 1571 1574 1577 1578 1580 1581 1583 1585 1584 1587 1589 1591 1594 1596 1599 1601 1604 1606 1609 1607 1608 1611 1613 1616 1619 1621 1623 1624 1626 1626 1629 1631 1634 1638 1640 1643 1647 1649 1652 1654 1658 1662 1666 1675 1685 1689 1697 1712 1720 1731 1744 1752 1753 1768 1786 1807 1814 1811 1803 1802 1808 1814 1800 1792 1789 1789 1794 1798 1803 1807 1811 1817 1822 1827 1830 1834 1839 1848 1845 1840 1841 1843 1844 1846 1844 1845 1849 1852 1853 1854 1858 1861 1864 1869 1873 1875 1880 1883 1892 1904
1715 1712 1707 1705 1701 1698 1694 1689 1687 1683 1681 1677 1673 1670 1667 1666 1662 1662 1659 1656 1653 1651 1650 1647 1644 1643 1641 1637 1635 1636 1634 1635 1630 1629 1626 1623 1623 1620 1618 1615 1615 1613 1611 1611 1609 1608 1610 1607 1604 1605 1603 1602 1600 1598 1597 1598 1597 1594 1592 1592 1591 1591 1589 1588 1587 1586 1585 1585 1585 1584 1583 1583 1584 1583 1582 1582 1581 1581 1582 1582 1581 1581 1581 1582 1581 1580 1581 1582 1581 1580 1579 1579 1579 1580 1580 1578 1578 1577 1579 1579 1579 1579 1580 1578 1578 1577 1577 1576 1579 1578 1578 1578 1577 1577 1577 1578 1577 1577 1577 1577 1575 1574 1574 1574 1575 1573 1573 1572 1570 1571 1569 1570 1571 1571 1570 1569 1569 1569 1569 1569 1568 1570 1567 1566 1568 1569 1569 1570 1568 1566 1568 1567 1568 1568 1569 1570 1569 1566 1566 1566 1567 1567 1566 1566 1567 1565 1565 1566 1566 1567 1566 1565 1565 1564 1564 1562 1561 1562 1563 1564 1563 1563 1564 1562 1563 1563 1562 1563 1561 1561 1562 1560 1561 1561 1561 1561 1560 1561 1561 1561 1561 1563 1564 1564 1565 1567 1570 1568 1569 1570 1570 1570 1571 1571 1573 1574 1573 1572 1573 1575 1574 1573 1574 1575 1574 1573 1574 1573 1573 1571 1573 1573 1573 1573 1573 1573 1572 1573 1573 1572 1571 1571 1571 1570 1568 1567 1565 1566 1568 1566 1566 1564 1564 1566 1563 1562 1561 1559 1559 1559 1559 1557 1556 1556 1557 1556 1558 1559 1556 1557 1557 1556 1553 1554 1555 1557 1557 1557 1557 1556 1554 1554 1557 1557 1556 1556 1556 1556 1558 1558 1559 1559 1560 1560 1561 1560 1561 1563 1562 1564 1563 1563 1565 1563 1564 1564 1565 1566 1566 1568 1568 1567 1567 1567 1567 1566 1567 1567 1566 1567 1567 1566 1566 1566 1567 1567 1567 1567 1569 1569 1568 1568 1569 1570 1570 1570 1571 1571 1570 1569 1570 1571 1571 1571 1571 1571 1573 1572 1573 1572 1572 1572 1572 1573 1574 1575 1576 1575 1575 1577 1575 1574 1573 1572 1573 1575 1573 1574 1573 1573 1574 1573 1575 1573 1573 1573 1574 1573 1574 1571 1570 1570 1570 1569 1568 1568 1568 1570 1569 1568 1567 1566 1566 1566 1566 1565 1564 1564 1563 1561 1561 1562 1561 1560 1559 1559 1559 1557 1557 1558 1558 1556 1556 1554 1556 1557 1556 1556 1557 1555 1555 1554 1553 1553 1555 1554 1551 1551 1550 1549 1549 1551 1551 1552 1552 1553 1552 1553 1552 1552 1551 1551 1552 1552 1550 1551 1554 1554 1554 1552 1551 1553 1551 1551 1554 1553 1553 1552 1553 1556 1556 1556 1557 1553 1558 1561 1560 1556 1554 1556 1551 1556 1555 1555 1557 1554 1555 1556 1556 1555 1554 1555 1556 1556 1556 1557 1557 1560 1560 1560 1561 1562 1564 1568 1568 1569 1572 1573 1574 1577 1576 1580 1582 1583 1583 1585 1586 1587 1591 1595 1596 1598 1601 1605 1607 1609 1609 1610 1613 1615 1616 1621 1623 1625 1629 1631 1631 1631 1636 1637 1639 1642 1645 1647 1650 1652 1655 1658 1661 1662 1676 1689 1689 1704 1726 1742 1741 1751 1772 1782 1783 1798 1822 1817 1804 1801 1797 1798 1804 1795 1790 1785 1786 1791 1798 1801 1804 1809 1813 1818 1823 1824 1826 1830 1842 1844 1837 1837 1839 1840 1843 1840 1844 1849 1848 1849 1853 1853 1856 1863 1871 1883 1884 1886 1889 1891 1901
1718 1716 1713 1709 1704 1702 1697 1694 1691 1687 1684 1680 1676 1673 1670 1667 1665 1663 1661 1659 1656 1653 1650 1648 1647 1644 1640 1639 1640 1638 1636 1635 1633 1632 1627 1625 1625 1623 1620 1617 1616 1615 1611 1612 1611 1611 1611 1609 1606 1605 1603 1603 1602 1600 1599 1599 1597 1593 1593 1592 1590 1591 1591 1590 1589 1588 1586 1585 1585 1584 1584 1583 1584 1583 1582 1583 1583 1583 1584 1583 1581 1583 1583 1582 1580 1580 1582 1580 1582 1582 1581 1581 1580 1581 1581 1580 1580 1580 1580 1580 1580 1580 1580 1579 1578 1578 1578 1578 1579 1579 1578 1580 1578 1577 1578 1578 1578 1578 1577 1577 1576 1574 1575 1574 1574 1575 1574 1573 1571 1571 1572 1570 1570 1571 1570 1570 1570 1571 1571 1571 1570 1570 1569 1569 1569 1568 1568 1570 1568 1567 1568 1568 1568 1569 1569 1569 1567 1566 1566 1565 1568 1567 1567 1568 1566 1565 1566 1566 1565 1565 1567 1565 1565 1565 1563 1564 1564 1564 1564 1565 1564 1564 1565 1564 1563 1563 1562 1563 1562 1561 1561 1561 1562 1563 1561 1561 1560 1562 1563 1562 1565 1565 1567 1566 1568 1568 1571 1569 1572 1573 1572 1573 1574 1574 1574 1575 1575 1575 1576 1578 1577 1577 1578 1577 1578 1577 1578 1576 1575 1575 1575 1576 1575 1576 1576 1575 1576 1574 1573 1573 1572 1574 1574 1573 1573 1571 1570 1571 1569 1568 1567 1566 1566 1566 1566 1564 1564 1562 1561 1560 1559 1559 1559 1558 1558 1555 1555 1556 1557 1557 1557 1558 1557 1556 1556 1557 1558 1556 1556 1557 1554 1555 1558 1557 1558 1559 1559 1558 1562 1561 1562 1564 1563 1564 1565 1565 1565 1564 1567 1567 1565 1567 1569 1568 1567 1567 1569 1569 1569 1570 1571 1571 1571 1571 1572 1572 1570 1568 1570 1572 1571 1570 1569 1569 1569 1570 1570 1570 1570 1571 1570 1571 1572 1572 1572 1572 1573 1573 1573 1572 1572 1572 1573 1573 1573 1573 1574 1575 1577 1576 1574 1576 1577 1575 1575 1575 1576 1577 1577 1578 1577 1576 1575 1574 1574 1574 1576 1576 1575 1573 1576 1576 1574 1576 1575 1577 1577 1575 1575 1573 1574 1575 1572 1571 1570 1570 1570 1569 1570 1568 1568 1567 1568 1567 1567 1566 1567 1566 1566 1563 1563 1561 1562 1563 1562 1562 1560 1559 1558 1558 1558 1556 1556 1557 1559 1557 1555 1557 1557 1558 1556 1558 1556 1554 1553 1553 1551 1555 1553 1552 1553 1554 1552 1553 1553 1552 1549 1550 1551 1553 1552 1553 1553 1552 1553 1552 1553 1554 1555 1554 1554 1554 1549 1554 1555 1554 1553 1555 1556 1556 1556 1557 1558 1547 1551 1556 1557 1555 1555 1555 1551 1549 1548 1551 1554 1558 1556 1556 1556 1555 1554 1556 1557 1558 1558 1559 1560 1559 1559 1562 1562 1564 1565 1567 1567 1570 1574 1574 1574 1576 1577 1580 1582 1583 1584 1587 1590 1590 1592 1594 1595 1597 1602 1602 1606 1610 1611 1613 1617 1618 1619 1623 1624 1627 1631 1632 1634 1637 1638 1639 1642 1643 1645 1650 1651 1654 1657 1658 1662 1665 1670 1675 1689 1720 1746 1766 1768 1763 1794 1815 1812 1815 1828 1819 1811 1803 1794 1790 1799 1793 1785 1784 1784 1790 1796 1800 1803 1806 1811 1814 1818 1819 1821 1825 1827 1829 1830 1832 1836 1837 1839 1836 1839 1843 1846 1845 1847 1847 1852 1859 1870 1880 1887 1895 1899 1901 1899
1723 1719 1715 1711 1706 1703 1699 1697 1693 1691 1687 1683 1680 1676 1673 1670 1667 1664 1662 1661 1657 1654 1652 1650 1648 1646 1643 1640 1641 1639 1637 1634 1631 1633 1632 1630 1628 1625 1621 1620 1618 1616 1615 1614 1612 1612 1612 1609 1606 1606 1605 1603 1603 1603 1601 1599 1598 1595 1594 1592 1591 1591 1590 1589 1589 1589 1588 1587 1586 1586 1585 1584 1584 1585 1583 1583 1584 1583 1584 1583 1582 1582 1582 1582 1582 1581 1582 1581 1582 1582 1582 1581 1581 1582 1582 1580 1580 1581 1581 1581 1579 1580 1580 1580 1578 1578 1578 1579 1579 1581 1578 1579 1578 1577 1577 1577 1578 1578 1579 1576 1577 1577 1576 1575 1575 1574 1574 1573 1573 1573 1571 1570 1571 1571 1570 1571 1571 1572 1571 1570 1569 1571 1572 1571 1569 1569 1570 1570 1570 1570 1569 1570 1569 1568 1568 1569 1568 1567 1568 1567 1568 1568 1568 1569 1568 1567 1567 1567 1566 1566 1567 1567 1566 1565 1565 1564 1566 1565 1565 1564 1562 1564 1563 1564 1564 1563 1563 1563 1563 1562 1562 1562 1561 1561 1563 1560 1561 1564 1565 1565 1567 1567 1568 1569 1569 1571 1572 1572 1574 1575 1575 1575 1576 1577 1578 1579 1577 1580 1580 1580 1579 1579 1580 1580 1580 1580 1581 1579 1580 1579 1578 1579 1578 1578 1578 1577 1578 1578 1576 1576 1577 1576 1577 1575 1574 1574 1574 1573 1570 1571 1570 1568 1568 1569 1569 1567 1566 1565 1564 1565 1563 1563 1562 1561 1560 1558 1556 1557 1558 1560 1559 1558 1559 1556 1557 1557 1558 1557 1556 1558 1558 1557 1557 1559 1562 1563 1564 1563 1563 1564 1564 1567 1567 1568 1569 1568 1569 1568 1568 1569 1568 1569 1572 1571 1572 1571 1572 1572 1572 1572 1572 1573 1575 1574 1574 1574 1573 1572 1573 1572 1573 1571 1571 1572 1571 1572 1570 1571 1572 1572 1573 1572 1573 1574 1574 1572 1574 1574 1574 1574 1575 1573 1575 1576 1575 1576 1575 1575 1579 1578 1578 1579 1578 1578 1577 1577 1578 1577 1577 1579 1578 1579 1578 1578 1578 1577 1577 1578 1578 1579 1578 1578 1577 1577 1579 1579 1577 1576 1577 1575 1575 1575 1573 1573 1572 1572 1573 1571 1573 1571 1570 1572 1572 1571 1570 1568 1567 1568 1567 1564 1564 1563 1563 1563 1563 1561 1560 1562 1561 1562 1560 1557 1557 1558 1558 1556 1558 1557 1557 1558 1556 1556 1558 1556 1554 1552 1553 1556 1555 1554 1555 1554 1554 1555 1551 1555 1551 1551 1552 1552 1552 1552 1553 1554 1555 1555 1552 1550 1553 1553 1555 1553 1552 1554 1553 1557 1557 1557 1557 1554 1554 1554 1555 1554 1553 1549 1555 1552 1556 1554 1554 1551 1556 1556 1558 1562 1558 1553 1555 1555 1555 1555 1556 1557 1557 1557 1556 1559 1561 1563 1562 1563 1563 1565 1567 1570 1572 1574 1573 1576 1578 1579 1582 1584 1586 1589 1591 1593 1595 1596 1597 1600 1603 1602 1606 1609 1611 1613 1616 1619 1622 1624 1626 1630 1631 1633 1636 1638 1639 1642 1644 1646 1649 1651 1655 1657 1660 1662 1665 1667 1671 1676 1685 1708 1750 1785 1787 1778 1802 1840 1852 1848 1838 1823 1808 1801 1793 1785 1793 1790 1782 1781 1783 1786 1790 1796 1800 1803 1806 1810 1812 1816 1817 1821 1825 1827 1829 1831 1835 1835 1837 1833 1835 1840 1842 1841 1844 1844 1847 1854 1860 1868 1881 1900 1921 1919 1910
1726 1720 1718 1714 1711 1707 1703 1701 1697 1692 1690 1687 1682 1679 1677 1673 1669 1668 1666 1662 1659 1658 1656 1653 1649 1647 1646 1644 1641 1640 1638 1634 1633 1633 1632 1630 1629 1627 1624 1623 1619 1619 1617 1615 1614 1613 1611 1611 1610 1608 1605 1605 1606 1604 1602 1600 1599 1597 1596 1594 1593 1592 1591 1591 1591 1589 1589 1588 1588 1588 1587 1586 1585 1584 1584 1584 1584 1585 1586 1585 1585 1584 1584 1582 1583 1581 1583 1582 1582 1583 1584 1582 1582 1583 1582 1582 1581 1581 1581 1582 1582 1582 1580 1580 1579 1578 1579 1580 1580 1580 1580 1578 1581 1578 1578 1578 1578 1579 1578 1577 1577 1576 1576 1577 1575 1574 1574 1573 1572 1574 1572 1571 1570 1569 1571 1570 1570 1572 1572 1571 1571 1571 1571 1571 1569 1569 1571 1570 1569 1569 1571 1572 1570 1568 1568 1569 1568 1569 1569 1569 1568 1568 1568 1568 1570 1568 1566 1565 1567 1568 1566 1566 1566 1566 1567 1566 1566 1566 1566 1565 1565 1565 1565 1564 1565 1564 1564 1565 1564 1561 1561 1562 1561 1560 1562 1563 1565 1565 1566 1567 1569 1570 1571 1571 1571 1574 1573 1574 1577 1578 1577 1577 1577 1578 1580 1580 1580 1580 1582 1582 1582 1581 1582 1581 1582 1582 1582 1582 1582 1582 1583 1583 1580 1582 1581 1580 1579 1579 1579 1579 1580 1579 1579 1578 1576 1577 1576 1575 1574 1574 1572 1571 1571 1570 1571 1568 1567 1567 1566 1564 1563 1563 1564 1564 1563 1560 1559 1560 1561 1563 1561 1561 1559 1559 1559 1559 1560 1561 1561 1560 1560 1560 1560 1562 1563 1564 1564 1565 1567 1567 1570 1570 1570 1570 1571 1571 1571 1571 1572 1573 1574 1575 1575 1577 1577 1577 1577 1576 1576 1579 1578 1577 1577 1577 1579 1577 1576 1577 1575 1575 1574 1575 1575 1575 1574 1572 1574 1575 1575 1575 1575 1575 1574 1575 1576 1576 1576 1575 1575 1576 1579 1578 1578 1577 1577 1579 1577 1578 1578 1579 1579 1579 1579 1579 1579 1580 1580 1580 1580 1580 1580 1580 1580 1581 1581 1582 1581 1581 1580 1581 1581 1580 1580 1580 1579 1579 1579 1577 1578 1577 1577 1577 1577 1576 1574 1574 1576 1574 1573 1572 1570 1570 1573 1571 1569 1570 1571 1569 1568 1567 1567 1566 1565 1565 1564 1565 1564 1563 1563 1563 1559 1559 1559 1557 1559 1560 1559 1560 1559 1558 1558 1557 1558 1557 1556 1555 1556 1555 1554 1555 1556 1555 1555 1556 1552 1553 1551 1550 1551 1552 1554 1553 1553 1556 1555 1557 1553 1551 1551 1554 1555 1552 1552 1552 1553 1553 1555 1557 1557 1552 1552 1556 1556 1552 1551 1548 1552 1551 1553 1550 1551 1557 1560 1560 1556 1554 1552 1554 1553 1555 1555 1555 1557 1557 1556 1555 1558 1561 1561 1561 1563 1565 1564 1565 1568 1569 1569 1572 1573 1576 1578 1580 1582 1584 1584 1588 1591 1591 1593 1595 1600 1601 1604 1607 1609 1609 1612 1614 1618 1621 1622 1624 1626 1629 1632 1635 1638 1641 1641 1642 1648 1650 1651 1655 1656 1657 1661 1665 1668 1670 1674 1676 1682 1696 1735 1782 1808 1807 1811 1835 1858 1852 1838 1821 1810 1804 1794 1785 1783 1784 1778 1779 1785 1788 1791 1795 1797 1801 1805 1806 1812 1814 1815 1820 1824 1826 1828 1829 1831 1832 1830 1828 1833 1837 1837 1838 1838 1839 1843 1855 1863 1872 1889 1913 1933 1938 1934
1731 1727 1721 1716 1713 1709 1705 1700 1697 1693 1691 1687 1685 1681 1679 1675 1672 1670 1669 1667 1662 1659 1656 1654 1651 1650 1648 1644 1643 1641 1640 1638 1637 1634 1633 1632 1631 1629 1628 1626 1623 1621 1622 1620 1617 1615 1613 1614 1612 1609 1608 1606 1604 1604 1602 1601 1601 1600 1598 1597 1595 1593 1591 1592 1590 1589 1588 1588 1588 1587 1587 1586 1585 1586 1584 1585 1585 1585 1585 1585 1585 1585 1584 1584 1584 1583 1583 1582 1583 1584 1584 1583 1583 1584 1582 1580 1583 1582 1581 1582 1581 1582 1582 1581 1580 1579 1580 1581 1580 1580 1581 1581 1580 1580 1579 1579 1580 1579 1576 1576 1577 1578 1578 1575 1576 1575 1573 1573 1575 1574 1573 1572 1572 1573 1572 1571 1571 1571 1572 1572 1570 1569 1571 1569 1570 1572 1571 1570 1569 1570 1571 1569 1569 1571 1571 1570 1569 1569 1568 1567 1568 1567 1569 1568 1568 1568 1569 1568 1567 1567 1567 1567 1567 1567 1565 1564 1565 1566 1566 1565 1566 1564 1563 1564 1565 1564 1563 1565 1563 1561 1560 1561 1564 1562 1564 1564 1566 1567 1568 1569 1570 1570 1572 1573 1575 1576 1577 1578 1579 1579 1580 1580 1581 1581 1583 1584 1583 1584 1585 1585 1585 1582 1583 1584 1584 1584 1584 1584 1584 1587 1585 1586 1583 1584 1584 1583 1583 1583 1583 1582 1582 1582 1583 1581 1579 1581 1578 1578 1576 1577 1577 1576 1574 1573 1573 1570 1572 1570 1568 1568 1568 1567 1566 1566 1565 1565 1563 1561 1562 1563 1562 1561 1562 1560 1561 1559 1560 1560 1562 1562 1562 1564 1564 1565 1566 1567 1568 1570 1571 1572 1573 1573 1572 1573 1575 1573 1574 1577 1577 1576 1577 1579 1578 1580 1579 1580 1579 1579 1581 1581 1581 1580 1581 1582 1580 1580 1580 1581 1579 1579 1578 1577 1577 1578 1579 1575 1576 1578 1577 1575 1576 1576 1576 1577 1578 1578 1579 1579 1580 1580 1579 1579 1579 1578 1581 1581 1580 1580 1579 1580 1580 1580 1582 1581 1582 1582 1583 1582 1583 1583 1584 1582 1582 1582 1584 1583 1582 1583 1580 1581 1581 1582 1581 1582 1581 1581 1581 1580 1579 1579 1578 1578 1577 1578 1577 1578 1577 1575 1576 1575 1573 1573 1573 1573 1573 1573 1572 1570 1569 1569 1569 1569 1568 1567 1566 1564 1566 1564 1563 1563 1561 1561 1561 1559 1562 1561 1561 1562 1561 1560 1561 1561 1560 1558 1557 1557 1558 1556 1556 1558 1557 1555 1555 1553 1555 1553 1553 1553 1552 1555 1554 1554 1554 1554 1554 1554 1553 1553 1553 1552 1552 1551 1552 1555 1554 1552 1554 1553 1552 1552 1554 1557 1558 1556 1551 1554 1555 1552 1552 1552 1555 1555 1552 1557 1557 1553 1553 1555 1555 1554 1555 1555 1554 1556 1557 1558 1558 1558 1560 1563 1563 1565 1566 1567 1568 1571 1572 1574 1575 1577 1578 1580 1582 1585 1585 1590 1591 1591 1593 1595 1600 1602 1604 1608 1610 1612 1616 1617 1619 1621 1623 1629 1629 1631 1634 1639 1641 1642 1643 1645 1648 1653 1653 1655 1656 1660 1664 1669 1672 1675 1678 1680 1684 1694 1718 1781 1814 1831 1829 1824 1824 1833 1827 1809 1798 1793 1788 1781 1776 1776 1775 1777 1783 1786 1788 1793 1795 1798 1802 1803 1807 1810 1815 1818 1821 1823 1824 1825 1824 1826 1824 1827 1830 1833 1835 1834 1835 1837 1842 1852 1864 1872 1882 1898 1905 1919 1934
1734 1729 1723 1720 1716 1713 1708 1703 1701 1697 1696 1691 1687 1684 1681 1679 1675 1673 1669 1668 1665 1662 1659 1656 1654 1651 1649 1648 1646 1643 1642 1641 1638 1635 1633 1632 1632 1631 1629 1628 1626 1624 1624 1620 1619 1617 1614 1613 1612 1610 1608 1606 1605 1605 1603 1603 1601 1599 1597 1597 1596 1595 1594 1592 1591 1590 1589 1588 1590 1590 1588 1586 1586 1585 1586 1587 1585 1586 1585 1585 1586 1584 1583 1584 1585 1584 1583 1583 1585 1583 1584 1583 1583 1582 1581 1582 1583 1582 1581 1582 1582 1582 1582 1582 1582 1581 1581 1582 1581 1583 1581 1581 1580 1580 1581 1579 1579 1579 1578 1577 1578 1576 1577 1576 1577 1576 1575 1576 1575 1574 1572 1571 1572 1574 1573 1572 1571 1571 1571 1572 1572 1571 1571 1571 1570 1570 1571 1570 1570 1570 1570 1569 1569 1570 1570 1569 1569 1571 1569 1568 1568 1568 1569 1569 1568 1567 1568 1568 1565 1566 1568 1565 1567 1569 1567 1566 1565 1564 1565 1567 1566 1565 1565 1565 1565 1564 1563 1563 1562 1563 1561 1562 1564 1564 1565 1565 1568 1570 1571 1570 1573 1573 1575 1576 1577 1578 1579 1580 1582 1582 1584 1584 1583 1585 1586 1587 1587 1586 1588 1588 1587 1586 1587 1587 1588 1588 1586 1587 1588 1586 1586 1587 1587 1587 1587 1586 1587 1586 1585 1584 1585 1585 1585 1583 1583 1583 1580 1580 1579 1579 1580 1578 1575 1573 1573 1573 1573 1572 1572 1570 1570 1569 1568 1568 1567 1566 1566 1565 1565 1565 1562 1563 1564 1562 1563 1563 1562 1561 1563 1564 1563 1567 1568 1568 1570 1569 1571 1572 1574 1576 1574 1576 1578 1577 1577 1578 1578 1579 1580 1581 1581 1580 1581 1581 1582 1583 1585 1585 1584 1586 1586 1584 1584 1584 1584 1584 1584 1583 1582 1582 1582 1581 1581 1581 1579 1580 1582 1581 1581 1579 1578 1579 1580 1580 1580 1579 1580 1580 1581 1580 1580 1583 1582 1582 1582 1582 1584 1584 1581 1582 1582 1582 1583 1582 1584 1585 1584 1584 1586 1586 1585 1584 1583 1584 1586 1586 1584 1586 1582 1583 1583 1584 1583 1583 1582 1581 1582 1582 1583 1581 1582 1580 1580 1580 1580 1580 1578 1577 1577 1576 1577 1576 1575 1575 1573 1573 1574 1573 1572 1572 1570 1570 1570 1569 1570 1567 1567 1565 1564 1564 1563 1564 1564 1563 1562 1562 1562 1564 1563 1563 1560 1559 1558 1557 1557 1557 1558 1557 1557 1556 1556 1557 1557 1559 1557 1556 1555 1555 1554 1555 1552 1552 1554 1553 1554 1554 1555 1555 1553 1553 1554 1553 1551 1552 1552 1551 1552 1553 1553 1554 1554 1554 1555 1557 1554 1554 1555 1552 1553 1552 1555 1556 1557 1556 1556 1554 1554 1556 1556 1557 1555 1555 1554 1554 1556 1557 1559 1561 1562 1563 1565 1566 1566 1568 1571 1572 1573 1574 1576 1577 1579 1580 1581 1583 1587 1590 1592 1593 1595 1598 1600 1603 1604 1609 1610 1613 1617 1619 1620 1623 1626 1629 1631 1633 1637 1639 1643 1644 1647 1650 1651 1653 1656 1657 1659 1662 1665 1668 1671 1675 1679 1681 1686 1690 1703 1743 1792 1818 1828 1820 1805 1810 1820 1814 1799 1789 1781 1778 1775 1770 1772 1777 1780 1783 1787 1789 1789 1792 1797 1802 1805 1806 1808 1814 1818 1818 1820 1822 1820 1820 1822 1827 1828 1829 1830 1830 1831 1832 1836 1843 1849 1859 1873 1878 1880 1898 1923
1736 1730 1725 1722 1718 1713 1711 1707 1703 1701 1698 1695 1692 1689 1684 1682 1678 1676 1673 1671 1668 1663 1661 1658 1655 1654 1652 1649 1648 1648 1645 1641 1640 1638 1637 1635 1633 1633 1631 1629 1627 1625 1623 1623 1623 1620 1618 1616 1612 1612 1609 1607 1606 1604 1605 1603 1602 1602 1600 1598 1598 1596 1595 1594 1593 1592 1591 1590 1590 1591 1590 1588 1588 1588 1587 1587 1586 1587 1587 1587 1585 1583 1585 1586 1586 1585 1584 1585 1586 1585 1585 1585 1584 1583 1582 1584 1584 1584 1583 1583 1583 1583 1582 1583 1582 1582 1582 1581 1581 1582 1581 1581 1581 1580 1581 1579 1580 1580 1581 1579 1577 1577 1578 1575 1574 1576 1574 1574 1574 1575 1573 1572 1573 1573 1573 1572 1570 1572 1572 1572 1571 1571 1572 1572 1572 1571 1570 1569 1570 1571 1570 1570 1569 1568 1570 1570 1570 1571 1568 1568 1568 1569 1570 1569 1569 1569 1568 1568 1568 1568 1568 1567 1567 1567 1567 1567 1565 1567 1565 1564 1567 1566 1566 1566 1565 1565 1565 1563 1563 1564 1564 1564 1564 1565 1566 1569 1570 1572 1573 1573 1577 1577 1578 1578 1579 1581 1581 1583 1584 1585 1584 1585 1585 1587 1587 1588 1589 1588 1589 1589 1591 1591 1591 1591 1591 1592 1591 1590 1591 1591 1590 1589 1590 1590 1591 1590 1588 1590 1588 1588 1588 1586 1587 1587 1586 1585 1584 1583 1582 1583 1582 1579 1578 1576 1578 1577 1576 1575 1575 1574 1574 1573 1572 1571 1570 1570 1569 1566 1568 1567 1566 1564 1565 1565 1565 1565 1564 1565 1566 1566 1568 1569 1572 1572 1573 1573 1575 1577 1578 1579 1579 1580 1582 1583 1581 1582 1583 1583 1584 1584 1586 1586 1586 1586 1587 1587 1589 1589 1590 1590 1589 1589 1589 1589 1589 1589 1588 1585 1585 1586 1586 1584 1584 1585 1582 1582 1582 1583 1583 1581 1581 1582 1583 1582 1581 1583 1583 1581 1582 1582 1584 1584 1582 1583 1584 1585 1586 1586 1584 1582 1584 1585 1586 1584 1586 1587 1586 1586 1586 1586 1586 1584 1584 1586 1587 1588 1588 1589 1586 1585 1586 1587 1587 1586 1586 1585 1584 1585 1583 1582 1584 1584 1582 1583 1580 1581 1580 1579 1579 1579 1580 1578 1578 1577 1577 1577 1576 1575 1573 1572 1571 1572 1573 1570 1569 1566 1567 1567 1566 1566 1564 1564 1564 1564 1565 1565 1564 1565 1563 1563 1564 1565 1561 1558 1559 1560 1560 1559 1558 1558 1558 1557 1558 1558 1557 1558 1557 1556 1556 1553 1553 1554 1555 1553 1553 1554 1556 1555 1555 1555 1555 1555 1554 1554 1553 1554 1555 1555 1553 1554 1553 1554 1555 1553 1554 1557 1556 1556 1555 1556 1558 1558 1556 1556 1555 1553 1554 1555 1555 1555 1554 1554 1556 1555 1557 1557 1559 1562 1563 1562 1563 1566 1565 1567 1570 1570 1572 1575 1575 1577 1581 1582 1581 1584 1586 1588 1592 1596 1598 1601 1603 1604 1608 1608 1610 1613 1617 1620 1621 1624 1626 1629 1631 1636 1639 1640 1642 1645 1649 1652 1653 1657 1657 1661 1662 1665 1666 1671 1674 1676 1679 1683 1687 1690 1697 1712 1751 1791 1816 1823 1801 1786 1793 1793 1788 1782 1775 1773 1776 1769 1769 1774 1778 1779 1782 1787 1789 1792 1796 1799 1802 1804 1807 1810 1812 1815 1817 1819 1818 1814 1820 1823 1823 1825 1826 1825 1826 1827 1831 1835 1841 1855 1862 1863 1884 1903 1921
1739 1733 1728 1724 1721 1715 1713 1711 1708 1703 1701 1698 1694 1692 1689 1686 1682 1678 1675 1672 1670 1666 1663 1660 1660 1656 1653 1652 1648 1647 1645 1643 1641 1639 1640 1637 1637 1634 1632 1630 1628 1628 1627 1625 1623 1619 1618 1617 1615 1614 1612 1610 1609 1607 1606 1604 1603 1603 1602 1601 1598 1597 1597 1594 1594 1594 1592 1592 1592 1592 1590 1589 1590 1589 1588 1587 1587 1588 1589 1588 1586 1585 1586 1586 1585 1586 1587 1587 1586 1585 1586 1586 1585 1584 1583 1584 1585 1585 1584 1585 1586 1585 1584 1583 1582 1581 1582 1584 1583 1583 1582 1582 1581 1581 1581 1580 1580 1578 1578 1577 1578 1578 1579 1577 1576 1577 1575 1574 1575 1574 1573 1573 1572 1572 1573 1574 1573 1571 1570 1572 1573 1572 1572 1574 1571 1571 1571 1570 1572 1572 1571 1572 1571 1569 1571 1571 1569 1570 1570 1570 1568 1569 1570 1570 1571 1570 1568 1568 1568 1568 1569 1568 1567 1567 1566 1565 1566 1565 1564 1565 1566 1565 1566 1564 1563 1563 1563 1563 1565 1564 1563 1564 1565 1567 1569 1572 1573 1574 1574 1576 1579 1579 1580 1580 1581 1582 1582 1586 1587 1589 1589 1589 1589 1589 1590 1590 1591 1589 1592 1593 1592 1593 1594 1593 1593 1595 1594 1593 1593 1593 1593 1592 1593 1594 1593 1592 1594 1592 1592 1592 1592 1590 1590 1590 1589 1587 1585 1586 1586 1585 1583 1582 1581 1580 1581 1580 1579 1578 1577 1576 1574 1573 1574 1574 1573 1570 1572 1571 1569 1570 1568 1567 1567 1568 1566 1566 1566 1569 1571 1571 1572 1573 1575 1576 1576 1576 1578 1578 1580 1582 1584 1584 1585 1585 1585 1586 1587 1588 1589 1588 1588 1591 1591 1591 1590 1591 1592 1592 1594 1593 1591 1593 1593 1593 1593 1592 1590 1590 1589 1589 1589 1588 1587 1589 1588 1587 1584 1586 1587 1585 1584 1584 1584 1583 1584 1584 1584 1584 1585 1587 1586 1588 1587 1586 1587 1587 1586 1586 1588 1588 1589 1587 1587 1588 1587 1588 1588 1587 1589 1587 1588 1588 1588 1589 1590 1589 1591 1589 1589 1588 1586 1587 1588 1588 1589 1587 1588 1586 1584 1585 1585 1585 1585 1587 1584 1585 1583 1581 1580 1580 1581 1581 1580 1579 1578 1577 1576 1575 1574 1573 1572 1573 1574 1574 1572 1570 1569 1569 1568 1568 1568 1567 1569 1569 1569 1567 1565 1565 1565 1565 1568 1564 1561 1561 1561 1560 1561 1562 1562 1560 1559 1558 1559 1558 1557 1557 1556 1555 1555 1556 1554 1552 1553 1553 1553 1552 1553 1554 1554 1554 1555 1557 1555 1552 1554 1553 1552 1555 1552 1550 1553 1555 1556 1555 1555 1554 1555 1555 1556 1554 1554 1558 1556 1557 1555 1554 1556 1558 1556 1555 1556 1554 1555 1556 1555 1556 1558 1561 1561 1563 1563 1565 1567 1569 1570 1571 1574 1576 1577 1578 1581 1582 1586 1588 1588 1590 1591 1596 1598 1599 1605 1606 1607 1608 1611 1614 1617 1620 1623 1624 1627 1631 1635 1638 1640 1641 1642 1646 1650 1654 1656 1659 1659 1663 1666 1668 1671 1673 1675 1679 1682 1684 1688 1692 1697 1702 1719 1752 1795 1820 1811 1786 1771 1774 1772 1770 1767 1766 1770 1768 1768 1770 1775 1779 1782 1785 1787 1792 1795 1797 1799 1801 1805 1807 1809 1811 1812 1814 1815 1812 1818 1820 1821 1823 1823 1822 1822 1824 1825 1828 1838 1850 1853 1866 1887 1904 1907
1742 1735 1732 1728 1723 1721 1718 1715 1711 1707 1705 1702 1698 1696 1693 1688 1684 1680 1676 1673 1672 1670 1666 1663 1661 1657 1658 1654 1651 1651 1647 1644 1643 1641 1641 1638 1638 1635 1634 1631 1630 1628 1627 1626 1624 1622 1621 1620 1618 1615 1612 1611 1610 1609 1606 1606 1605 1603 1602 1602 1600 1599 1598 1597 1595 1596 1595 1594 1592 1593 1591 1592 1590 1589 1589 1588 1589 1589 1588 1587 1586 1586 1585 1586 1585 1587 1587 1588 1587 1588 1587 1587 1586 1586 1585 1585 1585 1586 1585 1586 1587 1586 1584 1584 1583 1582 1582 1583 1583 1583 1582 1582 1581 1581 1581 1582 1581 1580 1581 1581 1579 1578 1579 1580 1578 1576 1577 1575 1576 1575 1573 1573 1573 1572 1573 1574 1575 1574 1571 1573 1574 1572 1572 1572 1572 1572 1572 1571 1573 1572 1569 1572 1573 1570 1571 1570 1572 1570 1570 1572 1570 1569 1570 1569 1570 1570 1569 1571 1569 1570 1568 1567 1568 1569 1567 1567 1567 1566 1566 1566 1566 1566 1567 1564 1563 1564 1564 1565 1565 1565 1565 1566 1567 1569 1572 1573 1576 1577 1577 1577 1580 1584 1584 1584 1585 1586 1586 1588 1589 1590 1590 1591 1592 1591 1592 1594 1593 1594 1595 1595 1596 1596 1595 1594 1596 1597 1596 1596 1596 1595 1595 1595 1595 1596 1596 1598 1596 1595 1596 1594 1594 1594 1593 1594 1594 1591 1588 1589 1588 1587 1586 1585 1586 1584 1583 1582 1582 1582 1582 1580 1580 1578 1577 1576 1574 1575 1575 1572 1571 1572 1570 1570 1570 1570 1568 1569 1570 1571 1573 1574 1575 1575 1577 1579 1580 1581 1582 1583 1584 1585 1587 1588 1588 1587 1590 1591 1591 1591 1592 1593 1594 1596 1595 1596 1595 1595 1595 1596 1597 1598 1596 1597 1596 1596 1598 1596 1594 1594 1594 1593 1593 1591 1589 1590 1589 1590 1589 1588 1589 1589 1586 1587 1587 1586 1585 1586 1588 1587 1588 1587 1588 1588 1589 1590 1591 1589 1589 1591 1589 1590 1589 1588 1588 1591 1591 1590 1590 1588 1590 1591 1592 1590 1590 1591 1592 1589 1591 1592 1592 1591 1589 1590 1591 1592 1589 1588 1587 1587 1585 1588 1589 1588 1586 1588 1586 1586 1585 1585 1583 1582 1583 1583 1582 1583 1581 1579 1578 1577 1577 1577 1574 1573 1575 1574 1573 1571 1573 1571 1569 1571 1568 1567 1568 1567 1569 1569 1569 1566 1568 1566 1565 1565 1564 1564 1563 1562 1561 1560 1561 1560 1560 1559 1560 1559 1559 1559 1558 1556 1556 1558 1557 1554 1555 1554 1550 1550 1552 1554 1553 1554 1553 1554 1555 1554 1553 1556 1554 1553 1548 1552 1555 1554 1556 1554 1554 1553 1554 1555 1555 1555 1556 1557 1557 1556 1556 1555 1557 1557 1558 1557 1558 1557 1557 1556 1555 1557 1558 1562 1562 1563 1564 1565 1566 1569 1571 1573 1573 1575 1577 1580 1581 1582 1586 1588 1591 1591 1591 1595 1599 1601 1604 1605 1608 1612 1613 1615 1618 1622 1624 1626 1629 1633 1634 1637 1640 1641 1644 1647 1652 1655 1659 1662 1663 1665 1667 1671 1675 1677 1676 1679 1681 1687 1691 1693 1698 1702 1706 1727 1772 1808 1816 1796 1769 1763 1762 1763 1760 1759 1763 1766 1769 1771 1774 1779 1779 1782 1786 1788 1792 1794 1797 1801 1802 1804 1805 1809 1810 1811 1808 1810 1815 1818 1816 1816 1818 1818 1816 1819 1825 1829 1835 1841 1851 1868 1873 1887 1892
1749 1742 1738 1732 1727 1727 1723 1718 1714 1711 1707 1705 1701 1698 1694 1689 1687 1684 1681 1677 1674 1671 1668 1667 1664 1660 1658 1657 1654 1652 1650 1647 1646 1644 1643 1640 1639 1636 1634 1632 1632 1631 1628 1627 1625 1624 1624 1622 1620 1618 1615 1614 1610 1609 1608 1607 1607 1605 1603 1604 1601 1600 1599 1597 1596 1596 1595 1595 1595 1595 1593 1591 1592 1591 1591 1590 1591 1590 1590 1589 1588 1587 1589 1589 1588 1588 1587 1588 1588 1588 1587 1588 1587 1586 1585 1587 1587 1587 1586 1587 1587 1585 1583 1585 1586 1582 1582 1584 1585 1585 1584 1584 1583 1582 1583 1582 1582 1583 1582 1581 1579 1580 1579 1577 1577 1578 1577 1575 1574 1574 1575 1572 1573 1575 1574 1575 1576 1574 1574 1572 1573 1574 1575 1573 1572 1572 1572 1573 1571 1572 1571 1571 1573 1572 1572 1570 1571 1571 1570 1571 1571 1571 1569 1569 1570 1568 1569 1569 1568 1569 1568 1568 1569 1568 1569 1569 1568 1567 1567 1567 1566 1567 1567 1566 1563 1564 1565 1564 1564 1564 1566 1567 1568 1570 1572 1573 1576 1579 1580 1582 1584 1584 1585 1586 1586 1588 1589 1592 1593 1594 1594 1594 1596 1594 1596 1597 1596 1596 1598 1597 1599 1599 1599 1601 1599 1599 1598 1597 1598 1599 1599 1599 1598 1598 1600 1600 1600 1600 1600 1598 1598 1597 1596 1596 1595 1592 1592 1592 1591 1590 1589 1590 1590 1587 1588 1586 1585 1585 1585 1584 1582 1581 1579 1579 1578 1578 1577 1577 1575 1574 1573 1573 1573 1572 1571 1574 1575 1575 1576 1577 1577 1579 1582 1581 1583 1584 1583 1585 1589 1589 1592 1592 1593 1592 1593 1593 1595 1596 1597 1599 1599 1600 1599 1600 1599 1599 1600 1600 1600 1598 1599 1602 1602 1601 1600 1599 1599 1599 1597 1596 1596 1595 1592 1592 1593 1593 1592 1591 1592 1591 1589 1588 1589 1588 1588 1589 1587 1586 1588 1589 1591 1589 1590 1593 1594 1591 1591 1592 1593 1593 1591 1591 1592 1593 1594 1592 1592 1593 1593 1593 1592 1593 1592 1591 1592 1592 1593 1593 1593 1591 1593 1592 1591 1594 1593 1592 1592 1591 1590 1590 1590 1590 1589 1589 1589 1587 1587 1587 1586 1585 1586 1586 1585 1582 1581 1581 1580 1579 1580 1579 1577 1577 1577 1576 1575 1573 1573 1572 1572 1572 1571 1571 1570 1568 1569 1569 1569 1567 1568 1568 1565 1566 1565 1565 1566 1564 1564 1563 1562 1562 1561 1561 1559 1559 1560 1559 1558 1559 1559 1559 1556 1554 1554 1555 1552 1554 1553 1553 1555 1553 1554 1555 1554 1554 1554 1554 1553 1553 1551 1553 1554 1555 1556 1556 1555 1554 1553 1552 1554 1555 1555 1556 1556 1555 1556 1556 1558 1556 1557 1557 1557 1560 1558 1556 1558 1558 1561 1565 1564 1563 1566 1567 1567 1570 1571 1575 1575 1578 1578 1580 1581 1585 1587 1588 1590 1590 1593 1598 1599 1601 1605 1607 1608 1612 1614 1616 1619 1621 1623 1628 1629 1633 1633 1638 1642 1645 1646 1651 1654 1655 1660 1663 1667 1667 1670 1673 1674 1679 1679 1680 1684 1688 1690 1697 1707 1714 1711 1718 1741 1780 1809 1803 1771 1759 1756 1754 1752 1757 1758 1763 1766 1769 1772 1773 1777 1783 1785 1788 1789 1789 1794 1797 1799 1800 1803 1805 1806 1807 1805 1806 1810 1813 1814 1814 1814 1814 1816 1819 1825 1829 1836 1846 1858 1864 1862 1869 1872
1750 1747 1743 1738 1733 1730 1726 1722 1718 1716 1712 1710 1705 1700 1697 1692 1689 1685 1683 1679 1676 1674 1671 1668 1667 1664 1661 1658 1656 1655 1651 1651 1649 1647 1645 1643 1642 1640 1635 1633 1634 1632 1632 1631 1629 1625 1625 1624 1623 1620 1619 1615 1613 1612 1609 1608 1607 1606 1605 1604 1604 1601 1602 1600 1597 1596 1597 1595 1595 1594 1593 1592 1593 1593 1592 1592 1592 1591 1591 1590 1589 1589 1589 1589 1590 1588 1588 1588 1589 1590 1589 1588 1587 1586 1587 1587 1586 1587 1587 1588 1587 1587 1586 1586 1585 1584 1583 1584 1586 1586 1585 1583 1582 1582 1584 1583 1583 1584 1583 1581 1580 1581 1579 1577 1579 1579 1577 1575 1573 1575 1575 1575 1573 1574 1576 1575 1575 1574 1572 1572 1573 1574 1574 1575 1574 1574 1574 1574 1572 1572 1573 1573 1572 1572 1571 1569 1570 1572 1572 1571 1573 1571 1569 1571 1569 1570 1570 1568 1569 1568 1569 1568 1569 1569 1568 1568 1570 1568 1567 1566 1566 1566 1566 1565 1566 1566 1566 1563 1563 1563 1566 1568 1570 1573 1575 1577 1579 1581 1583 1584 1586 1588 1590 1588 1589 1592 1592 1594 1594 1596 1597 1596 1597 1597 1597 1597 1598 1600 1601 1601 1603 1603 1603 1603 1602 1601 1602 1602 1603 1601 1601 1602 1602 1601 1603 1602 1602 1604 1603 1601 1601 1601 1599 1598 1596 1599 1598 1595 1594 1592 1592 1593 1592 1592 1590 1590 1590 1589 1587 1585 1584 1583 1584 1582 1580 1580 1580 1579 1578 1575 1576 1574 1575 1576 1577 1578 1579 1578 1579 1582 1582 1584 1586 1587 1589 1588 1588 1588 1590 1593 1594 1595 1597 1596 1597 1597 1600 1603 1601 1603 1603 1604 1603 1603 1604 1604 1606 1605 1604 1601 1605 1606 1605 1605 1604 1605 1601 1600 1601 1599 1600 1599 1597 1595 1597 1597 1594 1593 1594 1592 1591 1592 1592 1589 1590 1592 1590 1590 1591 1591 1592 1592 1593 1593 1592 1594 1594 1594 1594 1595 1596 1595 1594 1594 1594 1593 1595 1596 1595 1594 1595 1596 1596 1594 1595 1595 1596 1596 1595 1594 1594 1595 1595 1594 1593 1593 1594 1596 1594 1594 1594 1593 1591 1591 1590 1589 1588 1587 1587 1586 1586 1586 1587 1586 1585 1583 1582 1582 1581 1580 1581 1580 1577 1577 1578 1576 1576 1576 1574 1572 1572 1572 1573 1571 1570 1571 1570 1570 1570 1569 1567 1566 1567 1565 1565 1567 1566 1564 1564 1562 1560 1565 1564 1561 1560 1560 1560 1560 1560 1559 1557 1556 1555 1556 1554 1555 1553 1553 1555 1552 1554 1554 1554 1553 1554 1557 1556 1556 1554 1552 1554 1554 1553 1553 1554 1554 1554 1555 1553 1554 1556 1557 1557 1555 1556 1555 1555 1556 1558 1557 1558 1558 1556 1555 1561 1560 1561 1564 1562 1563 1566 1567 1569 1572 1573 1573 1574 1576 1579 1583 1584 1585 1588 1589 1590 1593 1593 1598 1601 1601 1606 1608 1609 1612 1613 1618 1621 1622 1624 1625 1629 1635 1637 1640 1643 1646 1649 1651 1654 1657 1662 1665 1667 1669 1672 1674 1679 1682 1686 1687 1688 1691 1694 1696 1706 1724 1731 1720 1723 1742 1766 1787 1777 1755 1749 1748 1748 1752 1757 1762 1764 1766 1769 1773 1775 1778 1780 1786 1786 1788 1791 1794 1796 1798 1802 1802 1802 1800 1800 1806 1807 1809 1812 1812 1811 1812 1818 1821 1825 1828 1837 1846 1849 1855 1855 1859 1864
1753 1749 1746 1743 1739 1737 1732 1728 1724 1719 1715 1710 1708 1702 1699 1696 1692 1689 1686 1682 1680 1678 1674 1671 1669 1666 1663 1660 1657 1657 1654 1652 1649 1647 1645 1645 1642 1641 1637 1635 1632 1631 1632 1630 1630 1629 1627 1626 1626 1623 1620 1618 1617 1615 1613 1611 1610 1609 1608 1605 1604 1604 1603 1601 1600 1599 1597 1597 1597 1596 1595 1595 1595 1593 1594 1592 1590 1591 1591 1591 1592 1591 1591 1591 1588 1588 1588 1588 1589 1589 1588 1588 1589 1589 1588 1587 1588 1588 1588 1588 1587 1587 1587 1586 1585 1585 1586 1586 1586 1584 1586 1586 1585 1584 1583 1584 1582 1581 1580 1580 1581 1582 1578 1578 1579 1578 1577 1575 1575 1575 1577 1577 1575 1576 1575 1575 1573 1575 1575 1574 1574 1574 1575 1574 1574 1572 1572 1573 1573 1574 1573 1571 1571 1571 1571 1572 1572 1571 1572 1572 1571 1570 1569 1570 1570 1570 1570 1569 1569 1570 1569 1568 1569 1569 1569 1568 1567 1567 1567 1567 1565 1567 1566 1565 1565 1565 1565 1565 1566 1567 1568 1569 1573 1575 1577 1580 1582 1582 1585 1586 1589 1590 1593 1592 1592 1594 1597 1597 1597 1598 1600 1599 1599 1601 1602 1603 1602 1601 1602 1603 1604 1604 1606 1606 1605 1605 1606 1606 1604 1603 1604 1605 1605 1604 1605 1606 1606 1606 1605 1605 1604 1605 1602 1601 1601 1602 1600 1597 1596 1595 1596 1596 1596 1595 1594 1593 1593 1592 1590 1588 1588 1588 1587 1586 1584 1584 1582 1581 1581 1579 1579 1576 1577 1579 1581 1582 1583 1582 1584 1586 1585 1588 1590 1590 1592 1592 1592 1594 1595 1596 1596 1600 1601 1602 1603 1602 1602 1604 1606 1608 1608 1609 1610 1608 1611 1610 1611 1610 1608 1607 1606 1609 1610 1609 1608 1608 1607 1606 1603 1604 1603 1602 1602 1600 1600 1601 1600 1598 1598 1597 1595 1594 1593 1592 1591 1592 1593 1594 1594 1594 1594 1595 1595 1596 1596 1595 1596 1596 1596 1597 1597 1597 1596 1595 1597 1595 1597 1597 1598 1599 1598 1600 1600 1598 1598 1599 1600 1598 1597 1596 1597 1597 1597 1597 1594 1595 1596 1595 1596 1596 1594 1594 1593 1592 1592 1592 1591 1591 1590 1588 1590 1589 1588 1588 1587 1586 1585 1584 1582 1581 1578 1579 1577 1578 1578 1577 1577 1577 1575 1575 1572 1573 1575 1573 1571 1571 1572 1570 1569 1571 1570 1567 1568 1566 1568 1567 1567 1566 1565 1565 1565 1564 1563 1561 1561 1562 1560 1561 1559 1559 1559 1558 1556 1556 1555 1556 1556 1555 1557 1553 1554 1555 1556 1554 1553 1556 1555 1555 1556 1554 1553 1554 1556 1556 1555 1554 1554 1556 1554 1555 1554 1556 1557 1557 1558 1557 1558 1558 1557 1558 1558 1558 1558 1559 1560 1560 1564 1564 1563 1564 1566 1568 1568 1572 1575 1576 1576 1578 1580 1582 1584 1586 1588 1589 1593 1594 1596 1598 1602 1603 1605 1608 1609 1613 1616 1617 1620 1625 1627 1629 1631 1635 1638 1640 1645 1648 1650 1652 1656 1658 1662 1663 1666 1672 1675 1678 1681 1684 1685 1688 1691 1694 1697 1700 1708 1725 1745 1738 1723 1723 1734 1748 1771 1761 1743 1743 1748 1751 1755 1758 1761 1763 1767 1772 1773 1775 1776 1779 1783 1785 1787 1791 1793 1796 1797 1796 1799 1796 1798 1802 1803 1805 1809 1810 1811 1811 1818 1821 1826 1830 1836 1840 1843 1847 1851 1856 1860
1760 1754 1750 1745 1742 1739 1735 1731 1729 1724 1718 1714 1710 1704 1701 1699 1695 1693 1689 1684 1682 1681 1677 1674 1670 1667 1664 1664 1661 1659 1656 1653 1651 1649 1647 1646 1644 1642 1639 1638 1636 1633 1633 1633 1631 1629 1629 1626 1627 1625 1623 1621 1618 1616 1616 1614 1613 1610 1607 1606 1605 1605 1604 1602 1600 1601 1602 1599 1596 1596 1596 1597 1596 1594 1592 1592 1592 1593 1592 1591 1591 1592 1591 1592 1591 1591 1590 1588 1589 1589 1590 1590 1591 1588 1588 1589 1590 1590 1589 1588 1588 1587 1586 1585 1584 1585 1587 1587 1586 1585 1586 1585 1585 1584 1584 1584 1583 1582 1582 1580 1581 1582 1581 1580 1578 1578 1576 1575 1576 1576 1576 1576 1575 1577 1575 1574 1575 1574 1574 1574 1573 1575 1575 1573 1574 1573 1573 1575 1575 1575 1572 1572 1572 1571 1573 1572 1572 1572 1573 1572 1571 1570 1571 1571 1572 1571 1571 1570 1569 1570 1569 1571 1569 1569 1569 1569 1567 1569 1570 1568 1567 1566 1565 1567 1566 1565 1566 1566 1568 1569 1570 1572 1574 1576 1578 1581 1583 1585 1587 1588 1591 1594 1594 1596 1597 1599 1598 1600 1600 1601 1601 1601 1603 1604 1605 1607 1605 1604 1605 1607 1605 1607 1607 1608 1609 1608 1609 1609 1608 1608 1607 1608 1609 1608 1608 1610 1610 1609 1608 1608 1607 1606 1607 1605 1605 1605 1602 1601 1600 1600 1599 1598 1598 1598 1597 1597 1596 1595 1593 1592 1590 1589 1589 1589 1588 1587 1584 1583 1583 1582 1582 1580 1580 1581 1583 1585 1587 1587 1589 1591 1592 1593 1594 1596 1596 1598 1598 1598 1598 1601 1602 1604 1604 1604 1605 1608 1608 1608 1611 1612 1612 1613 1614 1614 1614 1614 1615 1613 1612 1612 1611 1612 1613 1612 1613 1612 1612 1611 1610 1608 1606 1605 1605 1604 1604 1603 1602 1601 1600 1598 1598 1597 1597 1596 1596 1596 1595 1595 1594 1595 1597 1597 1597 1598 1598 1597 1599 1598 1598 1598 1598 1599 1599 1599 1600 1598 1600 1599 1600 1600 1600 1600 1600 1599 1600 1601 1602 1602 1600 1601 1600 1599 1600 1598 1597 1597 1597 1597 1596 1597 1596 1596 1596 1596 1594 1593 1593 1593 1593 1592 1591 1591 1591 1590 1587 1587 1587 1584 1583 1585 1584 1581 1581 1580 1579 1579 1577 1577 1576 1575 1575 1577 1577 1577 1575 1575 1576 1573 1573 1571 1572 1571 1570 1570 1570 1568 1568 1569 1569 1564 1565 1565 1563 1561 1562 1564 1561 1561 1561 1560 1560 1558 1557 1557 1557 1556 1556 1555 1556 1556 1554 1554 1553 1555 1556 1554 1555 1555 1556 1556 1555 1554 1554 1555 1556 1555 1556 1555 1553 1555 1555 1556 1557 1556 1558 1558 1561 1560 1558 1559 1560 1559 1558 1561 1561 1562 1565 1564 1564 1565 1566 1568 1570 1571 1571 1577 1577 1578 1581 1584 1586 1588 1589 1592 1593 1595 1596 1601 1602 1603 1605 1609 1610 1613 1616 1619 1620 1624 1626 1627 1631 1637 1640 1643 1645 1649 1652 1654 1656 1659 1663 1664 1669 1672 1674 1678 1682 1685 1686 1690 1692 1695 1699 1703 1706 1716 1726 1733 1729 1723 1726 1734 1744 1749 1741 1744 1746 1751 1755 1757 1761 1761 1765 1769 1771 1775 1775 1778 1779 1780 1785 1787 1788 1792 1793 1793 1794 1793 1796 1799 1801 1800 1800 1804 1808 1812 1814 1819 1824 1828 1830 1837 1842 1846 1849 1852 1856
1762 1759 1755 1750 1745 1741 1736 1732 1729 1725 1721 1717 1712 1706 1705 1702 1698 1696 1691 1688 1686 1682 1679 1678 1675 1671 1667 1667 1662 1659 1656 1654 1654 1650 1649 1647 1646 1645 1643 1639 1640 1638 1636 1637 1633 1631 1632 1630 1628 1628 1627 1623 1620 1619 1618 1616 1615 1613 1610 1609 1607 1604 1604 1604 1601 1600 1601 1599 1598 1598 1597 1597 1596 1596 1595 1594 1593 1594 1593 1593 1593 1594 1592 1591 1591 1592 1590 1591 1592 1592 1590 1590 1591 1590 1590 1589 1590 1590 1591 1589 1589 1587 1586 1586 1587 1587 1588 1587 1587 1586 1586 1586 1585 1585 1583 1583 1583 1582 1583 1580 1580 1580 1579 1581 1579 1580 1579 1577 1577 1578 1577 1576 1576 1574 1574 1574 1575 1575 1575 1576 1576 1575 1573 1573 1573 1573 1575 1573 1574 1574 1575 1573 1574 1573 1574 1573 1572 1572 1573 1573 1571 1571 1571 1572 1570 1570 1572 1571 1570 1570 1570 1568 1570 1570 1570 1569 1568 1568 1567 1569 1568 1568 1569 1567 1567 1566 1567 1569 1571 1570 1570 1574 1574 1577 1580 1582 1584 1586 1588 1590 1594 1596 1596 1599 1599 1601 1600 1601 1603 1604 1605 1605 1606 1607 1606 1607 1608 1608 1608 1610 1610 1609 1609 1610 1610 1611 1612 1611 1611 1613 1613 1613 1613 1613 1613 1613 1612 1611 1611 1611 1610 1609 1610 1610 1608 1605 1605 1606 1604 1603 1602 1602 1602 1602 1601 1602 1600 1598 1597 1596 1594 1592 1591 1592 1592 1590 1589 1590 1588 1586 1584 1584 1584 1585 1589 1590 1589 1590 1593 1595 1595 1597 1599 1600 1600 1601 1604 1606 1605 1606 1606 1608 1608 1608 1610 1610 1610 1612 1615 1615 1616 1619 1621 1619 1619 1618 1620 1619 1619 1619 1617 1616 1616 1617 1617 1616 1616 1615 1615 1612 1611 1611 1610 1606 1607 1605 1605 1604 1602 1601 1601 1599 1599 1598 1598 1597 1597 1597 1598 1599 1597 1599 1599 1602 1600 1601 1601 1601 1601 1601 1601 1603 1604 1602 1602 1601 1602 1602 1602 1600 1602 1603 1602 1602 1602 1601 1602 1604 1603 1602 1601 1600 1600 1600 1600 1601 1599 1601 1600 1599 1598 1599 1599 1599 1597 1595 1596 1594 1594 1594 1594 1592 1595 1593 1591 1591 1589 1585 1585 1585 1586 1584 1583 1582 1581 1579 1578 1578 1577 1578 1577 1577 1575 1578 1578 1575 1575 1573 1574 1572 1571 1573 1571 1570 1569 1569 1569 1569 1569 1567 1566 1566 1564 1563 1562 1562 1563 1562 1561 1560 1560 1559 1560 1558 1559 1559 1558 1556 1554 1554 1554 1554 1553 1553 1554 1553 1554 1555 1556 1556 1555 1554 1554 1554 1555 1555 1555 1556 1556 1556 1557 1558 1557 1557 1557 1558 1559 1560 1557 1560 1560 1558 1558 1559 1562 1563 1563 1564 1563 1565 1566 1569 1571 1573 1573 1576 1578 1577 1581 1584 1586 1588 1588 1591 1594 1597 1598 1600 1601 1603 1606 1610 1611 1614 1618 1620 1620 1625 1627 1628 1635 1637 1640 1645 1646 1651 1654 1657 1658 1661 1665 1668 1670 1672 1676 1678 1682 1685 1689 1691 1693 1696 1700 1704 1706 1710 1714 1719 1724 1723 1726 1728 1733 1736 1736 1742 1745 1748 1752 1754 1758 1760 1765 1766 1767 1768 1772 1776 1779 1780 1783 1786 1787 1787 1787 1787 1788 1789 1794 1795 1798 1798 1799 1801 1805 1808 1813 1817 1822 1827 1830 1836 1840 1841 1845 1848 1850
1766 1762 1759 1753 1747 1744 1739 1738 1732 1727 1723 1719 1714 1711 1708 1706 1703 1699 1695 1693 1688 1686 1682 1679 1677 1673 1669 1667 1666 1662 1660 1658 1656 1653 1652 1650 1648 1646 1644 1643 1641 1641 1641 1639 1635 1632 1632 1632 1630 1628 1627 1623 1624 1622 1620 1619 1617 1616 1612 1611 1609 1606 1606 1604 1602 1602 1601 1601 1601 1600 1598 1598 1598 1597 1597 1596 1594 1594 1595 1594 1595 1594 1593 1593 1593 1594 1593 1592 1593 1593 1592 1590 1590 1589 1590 1590 1590 1591 1590 1590 1589 1589 1587 1586 1588 1587 1587 1588 1588 1587 1587 1588 1586 1585 1584 1584 1585 1584 1585 1583 1580 1579 1582 1583 1583 1581 1578 1577 1577 1577 1576 1576 1576 1576 1577 1575 1575 1576 1576 1577 1577 1576 1574 1574 1575 1575 1575 1575 1574 1574 1574 1574 1574 1573 1574 1573 1572 1572 1572 1572 1573 1573 1573 1573 1571 1570 1571 1571 1572 1572 1573 1571 1570 1570 1570 1569 1570 1567 1565 1566 1567 1568 1569 1569 1569 1569 1569 1570 1570 1573 1572 1574 1575 1578 1580 1584 1587 1588 1591 1593 1594 1599 1601 1601 1601 1604 1605 1604 1606 1606 1608 1608 1610 1609 1610 1610 1612 1612 1612 1611 1613 1613 1614 1615 1615 1614 1615 1616 1614 1614 1615 1617 1618 1617 1616 1616 1616 1614 1614 1614 1612 1612 1612 1612 1609 1607 1608 1610 1608 1608 1609 1607 1606 1607 1604 1604 1602 1601 1600 1600 1597 1596 1596 1596 1595 1592 1594 1593 1591 1591 1588 1585 1587 1590 1593 1594 1593 1596 1599 1601 1602 1602 1604 1603 1604 1606 1608 1611 1612 1613 1613 1611 1612 1613 1613 1615 1615 1617 1620 1621 1621 1623 1624 1625 1624 1622 1624 1623 1623 1622 1620 1620 1618 1619 1620 1619 1620 1617 1617 1616 1615 1613 1613 1613 1610 1608 1608 1607 1606 1604 1602 1600 1601 1601 1601 1601 1600 1598 1599 1601 1601 1601 1603 1604 1604 1604 1602 1604 1603 1604 1605 1605 1605 1602 1603 1604 1604 1604 1604 1604 1603 1604 1604 1605 1604 1605 1605 1605 1604 1604 1603 1601 1603 1602 1601 1601 1601 1602 1602 1600 1602 1602 1601 1600 1599 1598 1597 1597 1596 1596 1596 1596 1594 1593 1592 1591 1590 1590 1589 1589 1587 1585 1585 1583 1581 1581 1581 1581 1582 1582 1579 1578 1580 1580 1576 1578 1577 1574 1575 1575 1572 1573 1574 1573 1570 1572 1570 1568 1569 1568 1567 1567 1565 1565 1564 1564 1563 1563 1561 1560 1561 1560 1560 1560 1560 1560 1557 1558 1559 1556 1555 1555 1554 1555 1555 1553 1553 1554 1554 1555 1556 1555 1556 1554 1556 1554 1557 1557 1556 1556 1557 1559 1558 1558 1558 1560 1560 1560 1560 1560 1559 1561 1559 1560 1561 1564 1564 1566 1567 1568 1570 1570 1572 1574 1575 1577 1577 1580 1582 1584 1588 1590 1590 1593 1595 1597 1600 1601 1602 1605 1608 1609 1612 1614 1616 1620 1624 1625 1627 1630 1634 1635 1639 1643 1647 1652 1654 1656 1659 1662 1667 1669 1671 1674 1674 1681 1686 1688 1690 1692 1696 1698 1702 1704 1704 1711 1713 1715 1721 1723 1724 1724 1728 1733 1739 1743 1745 1747 1750 1751 1755 1757 1761 1763 1765 1766 1768 1770 1774 1777 1780 1781 1782 1781 1781 1781 1782 1786 1790 1792 1793 1795 1796 1800 1804 1810 1812 1816 1820 1823 1828 1833 1835 1838 1840 1841 1844
